# .PCD v0.7 - Point Cloud Data file format
VERSION 0.7
FIELDS x y z
SIZE 4 4 4
TYPE F F F
COUNT 1 1 1
WIDTH 1416
HEIGHT 1
VIEWPOINT 0 0 0 1 0 0 0
POINTS 1416
DATA ascii
-0.1426712 1.2333641 -0.28736666
-0.13871004 1.2319752 -0.2860426
-0.13212614 1.2328335 -0.28696579
-0.1278397 1.2332093 -0.2872577
-0.12374933 1.2335707 -0.28658032
-0.11785331 1.2338481 -0.28959501
-0.11397281 1.2337772 -0.28801018
-0.10598781 1.2321981 -0.28550446
-0.10079457 1.2331613 -0.28672251
-0.097195484 1.2332551 -0.28836837
-0.091855779 1.2343695 -0.28934759
-0.082547113 1.2307739 -0.2865293
-0.078682519 1.2330147 -0.28564766
-0.071449898 1.2341259 -0.28761449
-0.069039024 1.2344964 -0.28827012
0.14159018 1.2345594 -0.28858262
-0.14719705 1.2358292 -0.28674793
-0.14274651 1.2366027 -0.28781283
-0.13760316 1.2386022 -0.28740162
-0.13249388 1.2367686 -0.28749737
-0.1294847 1.2359681 -0.28611311
-0.11819445 1.2356906 -0.28803295
-0.11325197 1.2359623 -0.28837001
-0.10747549 1.2386279 -0.28808787
-0.10296406 1.2367208 -0.28811449
-0.096853338 1.2353194 -0.28629589
-0.09193635 1.2366676 -0.28761944
-0.087545231 1.2373314 -0.28776464
-0.083127059 1.2373654 -0.28977925
-0.078032292 1.2398031 -0.28922272
-0.072407044 1.2356257 -0.28542167
-0.067904353 1.2368665 -0.28600192
-0.061309833 1.2389777 -0.28650686
-0.057214946 1.2387832 -0.28858674
-0.042578876 1.2368059 -0.2862792
-0.037595347 1.2388008 -0.28619206
-0.031659335 1.239303 -0.2882871
-0.012972946 1.2373923 -0.28773308
-0.0087287687 1.2380444 -0.28888723
-0.0046678931 1.2392119 -0.28935367
0.0041463966 1.2378548 -0.28529182
0.13443065 1.238891 -0.28827015
0.13816106 1.2374766 -0.2871812
0.14189146 1.2360623 -0.28609228
-0.89039117 1.2434852 -0.28546107
-0.88506556 1.2423857 -0.28915972
-0.88300127 1.2439814 -0.28822085
-0.11130952 1.2403145 -0.28991222
-0.1079355 1.2411838 -0.28573555
-0.10168619 1.2437943 -0.28842011
-0.097928785 1.2424992 -0.28713098
-0.085303649 1.2447281 -0.286915
-0.082322173 1.2434891 -0.28620577
-0.077203445 1.2406248 -0.28739542
-0.071582012 1.2437967 -0.28847262
-0.067644119 1.242883 -0.28770095
-0.057083014 1.2425114 -0.28702852
-0.052278511 1.2423246 -0.28727373
-0.048381906 1.2421566 -0.28789154
-0.04177456 1.243626 -0.28988674
-0.0302127 1.2411641 -0.28675735
-0.026425021 1.2418633 -0.28765002
-0.022312256 1.2424952 -0.28876844
-0.018093601 1.2438456 -0.28909147
-0.0077151433 1.2407007 -0.28622854
-0.0029864428 1.2418258 -0.28704667
0.0014551418 1.242762 -0.28795683
0.0068056597 1.2442364 -0.28864637
0.010147957 1.2447499 -0.28955525
0.018654855 1.2417079 -0.28733164
0.047914427 1.2443616 -0.28620303
0.074302547 1.2449338 -0.2862179
0.13362306 1.2405832 -0.28644669
0.13753173 1.2425975 -0.28705761
-0.88167995 1.2467413 -0.28557959
-0.87901711 1.2461916 -0.28742892
-0.095147654 1.2493278 -0.2884998
-0.092024744 1.2487943 -0.28662169
-0.087764643 1.245878 -0.2873112
-0.077355362 1.2472874 -0.28822279
-0.073357992 1.2462696 -0.28631639
-0.065804861 1.2456535 -0.28788707
-0.061499707 1.2469794 -0.28855893
-0.057441752 1.2459992 -0.28699902
-0.045924954 1.2486694 -0.28707486
-0.042166162 1.2460189 -0.2877984
-0.037570313 1.245611 -0.28760108
-0.033043932 1.2473333 -0.28927022
-0.028726712 1.2470458 -0.28668711
-0.018036667 1.2489316 -0.28863525
-0.014839879 1.2483857 -0.28671268
-0.00091171532 1.2496258 -0.28685102
0.0020021601 1.2467126 -0.28710869
0.0072926395 1.2464857 -0.2862272
0.011950138 1.2475016 -0.28728467
0.015751518 1.248032 -0.28823116
0.02162151 1.2497743 -0.28884798
0.028653599 1.246492 -0.28623945
0.031946123 1.248203 -0.28565967
0.037096463 1.2486012 -0.28758258
0.040662371 1.2491491 -0.28855231
0.047886204 1.2497705 -0.28856534
0.068264894 1.2491041 -0.28984094
0.078098617 1.2464103 -0.28620198
0.082244076 1.2475322 -0.2867603
0.087490588 1.2485681 -0.28791749
0.13354918 1.248302 -0.28893435
0.13712762 1.247951 -0.28639561
-0.89076912 1.253569 -0.28791744
-0.88653541 1.2542195 -0.28906876
-0.050533023 1.2501966 -0.2887468
-0.034782398 1.2507554 -0.28635442
-0.026370371 1.2540892 -0.28809968
-0.022422157 1.2524815 -0.28711206
-0.018812723 1.2505579 -0.286883
-0.0075810757 1.2522662 -0.28863215
-0.003686741 1.2509753 -0.2872192
0.0080373725 1.2532065 -0.28777021
0.012049161 1.2510129 -0.28759825
0.017786663 1.2519263 -0.28706062
0.023135314 1.2518736 -0.28784564
0.026616408 1.2519528 -0.28759071
0.031768702 1.253227 -0.28805384
0.038652342 1.2512761 -0.28514725
0.041909568 1.2525487 -0.2875973
0.047059 1.2522703 -0.28788358
0.051412739 1.253778 -0.28798211
0.056924 1.253642 -0.2888732
0.063777484 1.2500306 -0.28672442
0.067447558 1.2514024 -0.28677434
0.07166253 1.2512422 -0.28886867
0.077646151 1.2519989 -0.28777987
0.087892108 1.252409 -0.28740373
0.091752417 1.2525562 -0.28655285
0.096741363 1.2528031 -0.28713131
0.10079983 1.2530247 -0.28870666
0.13233212 1.2508523 -0.28618631
-0.89047843 1.2555417 -0.28573397
-0.88765597 1.2559754 -0.2865015
-0.88483346 1.256409 -0.28726906
-0.030731238 1.2570746 -0.28739384
-0.028793074 1.2557478 -0.28770757
0.005785834 1.2558535 -0.2857632
0.013752114 1.2584728 -0.28895137
0.017066432 1.2574736 -0.28760147
0.021485522 1.2561414 -0.28580156
0.033782825 1.2570881 -0.28795236
0.037231404 1.2564197 -0.28774923
0.042304389 1.2579994 -0.28781268
0.047631226 1.2592095 -0.28789288
0.052124348 1.2573961 -0.28690946
0.056462184 1.2565018 -0.28635007
0.062628619 1.2584467 -0.28906712
0.067435227 1.2582817 -0.28698713
0.071502328 1.2566253 -0.28596976
0.079827346 1.2591015 -0.28906333
0.082785413 1.2582097 -0.28785849
0.087133259 1.2565285 -0.28663814
0.092894472 1.259352 -0.2889539
0.098570704 1.2570882 -0.28726667
0.10085645 1.2570796 -0.28691983
0.10681713 1.2574329 -0.286255
0.13452873 1.2597722 -0.28693256
0.13581926 1.2585051 -0.28771138
-0.90287155 1.2645353 -0.28564274
0.023565084 1.2630687 -0.28960782
0.025739552 1.2626973 -0.2883001
0.042897429 1.2616818 -0.28902787
0.047607131 1.2610326 -0.28728205
0.052003771 1.2625239 -0.28877416
0.063317388 1.2611005 -0.2863206
0.065512754 1.2607256 -0.28500029
0.073458619 1.2628949 -0.28887433
0.077553578 1.2610358 -0.28813413
0.081229918 1.2604079 -0.28592312
0.092954628 1.2629083 -0.28678343
0.096973293 1.261277 -0.28728619
0.10153919 1.263104 -0.28846043
0.10724369 1.2640824 -0.28816286
0.12393673 1.2647214 -0.28863779
0.1277048 1.2632928 -0.28753784
0.13171415 1.2609665 -0.28756505
0.033029623 1.2669404 -0.28965423
0.10242914 1.2654121 -0.28782511
0.10729568 1.2663584 -0.28650892
0.11042753 1.2685094 -0.28613701
0.11753455 1.2682823 -0.2888228
0.12141766 1.2668644 -0.28760827
0.12536113 1.2660482 -0.28544873
0.10455248 1.2727687 -0.28972876
0.11337715 1.2717584 -0.28721356
0.11700927 1.2706147 -0.28580669
-0.83531469 0.88947874 -0.28233126
-0.83297098 0.88983887 -0.28296861
-0.81661248 0.88831472 -0.28090787
-0.81194866 0.88903129 -0.28217614
-0.83507335 0.8911168 -0.28051823
-0.83149379 0.8909806 -0.28229678
-0.8274622 0.89095211 -0.28415358
-0.81866759 0.89363742 -0.28497961
-0.81209725 0.8906014 -0.28026649
-0.80618739 0.89204037 -0.28125054
-0.80220079 0.89331669 -0.2815558
-0.79747689 0.89444065 -0.28237307
-0.79397905 0.89497811 -0.2833243
-0.7972368 0.8960706 -0.28056914
-0.79192525 0.89688653 -0.28201357
-0.78786105 0.89782965 -0.28274488
-0.7835539 0.89870381 -0.28366697
-0.79919416 0.90143234 -0.28463912
-0.78174311 0.90068114 -0.2821655
-0.7779597 0.90122259 -0.28324106
-0.77396023 0.90323091 -0.28269309
-0.77737701 0.90958732 -0.28493601
-0.7717911 0.9063518 -0.28001174
-0.77780956 0.91183335 -0.28210467
-0.77447021 0.9137696 -0.28134286
-0.78143764 0.91729581 -0.28369412
-0.77755046 0.918697 -0.28380781
-0.77765763 0.92109233 -0.28094855
-0.77797043 0.92901582 -0.28275609
-0.77421796 0.92898649 -0.28448766
-0.77621794 0.93110299 -0.28109944
-0.78113443 0.93856937 -0.28136146
-0.77812803 0.9379487 -0.28344947
-0.78264058 0.94355333 -0.28447211
-0.78254515 0.94589782 -0.28176421
-0.78708547 0.9527964 -0.28286242
-0.78321046 0.95257241 -0.28487781
-0.36051306 0.95681566 -0.28319082
-0.35893258 0.95654571 -0.2822403
-0.34790167 0.95741987 -0.28324628
-0.34466675 0.95896769 -0.28289294
-0.79026264 0.9613024 -0.28269112
-0.78721821 0.96330732 -0.28171527
-0.36515984 0.96496707 -0.2829929
-0.36262462 0.96285331 -0.2832436
-0.35866737 0.96052247 -0.28404376
-0.34855095 0.96429664 -0.28452313
-0.79510689 0.96910232 -0.28259429
-0.79147291 0.96966064 -0.28358251
-0.36707476 0.96620387 -0.28279305
-0.36281231 0.96801579 -0.2824097
-0.35877013 0.96680248 -0.28273988
-0.35140762 0.96687376 -0.28020707
-0.34803599 0.96674556 -0.28188235
-0.34455749 0.96943426 -0.28030026
-0.79098117 0.9713912 -0.28177428
-0.78976268 0.97323334 -0.28016365
-0.37042779 0.974374 -0.2814607
-0.36796555 0.97227937 -0.28246695
-0.36449078 0.97112781 -0.28120622
-0.34638408 0.9739846 -0.28377491
-0.7925415 0.97874773 -0.283683
-0.37050739 0.97901583 -0.28257102
-0.36861798 0.97813302 -0.28226686
-0.34269595 0.97694987 -0.28196317
-0.37158537 0.98322868 -0.2825262
-0.36957341 0.98462141 -0.28138253
-0.34747252 0.98347759 -0.28178322
-0.34316999 0.9831242 -0.28414378
-0.79720747 0.9886626 -0.28279167
-0.37745142 0.98877811 -0.28194425
-0.37270114 0.98677492 -0.28218105
-0.35025698 0.98881489 -0.28390107
-0.34801915 0.98915875 -0.28450963
-0.80295563 0.99473375 -0.28431496
-0.37676442 0.99332869 -0.28253442
-0.37198156 0.99157113 -0.28105521
-0.35002652 0.99037898 -0.28216988
-0.34854555 0.99152374 -0.28149626
-0.80101794 0.99623168 -0.28343365
-0.79713917 0.99831563 -0.28274208
-0.37660766 0.99900198 -0.28191027
-0.37402022 0.99669087 -0.28313094
-0.35032782 0.99765867 -0.28313148
-0.34792557 0.99905145 -0.28258345
-0.80516559 1.0037854 -0.28394064
-0.80269426 1.0041651 -0.28461272
-0.37576246 1.004805 -0.28050435
-0.35301709 1.0035753 -0.28461269
-0.34994197 1.0002772 -0.28023317
-0.80738246 1.0051329 -0.28135675
-0.80323923 1.0066136 -0.28149295
-0.79942322 1.0066935 -0.28312498
-0.37692791 1.0085769 -0.28383559
-0.35153931 1.0061159 -0.28229955
-0.34826857 1.0058473 -0.28409401
-0.81119734 1.0114499 -0.28346571
-0.80804467 1.0136306 -0.2823326
-0.37700313 1.0103016 -0.28133786
-0.35539144 1.0116289 -0.28372839
-0.35288981 1.0135626 -0.28259057
-0.37654769 1.0176091 -0.28199905
-0.81141645 1.02302 -0.28264332
-0.37624824 1.0207918 -0.28098387
-0.35650325 1.020696 -0.28222597
-0.35159501 1.0237844 -0.28082141
-0.81514663 1.029633 -0.28444302
-0.37512714 1.0289707 -0.28375053
-0.37377578 1.0293188 -0.28207773
-0.35554507 1.0285664 -0.28306407
-0.35325685 1.0289179 -0.28368634
-0.81739658 1.0310009 -0.28182048
-0.81350493 1.0324554 -0.28187346
-0.80961335 1.0339102 -0.28192639
-0.37641591 1.0345507 -0.28450108
-0.37467819 1.0312097 -0.28004014
-0.35530943 1.0301656 -0.2812939
-0.35290337 1.0313169 -0.28103107
0.17381173 1.0347836 -0.28058243
-0.37700531 1.0367432 -0.281748
-0.35640559 1.0385615 -0.28219295
-0.35366929 1.0388248 -0.28312144
0.15938704 1.0388112 -0.28236797
0.16112036 1.0371094 -0.28341401
-0.81618828 1.0417538 -0.2826024
-0.81279737 1.0428699 -0.28282622
-0.80992824 1.0440937 -0.2826876
-0.37723649 1.0417002 -0.28251943
-0.35748929 1.0444614 -0.28441972
0.15865663 1.0403419 -0.28071877
0.16400927 1.0429299 -0.28420365
0.16632882 1.0432396 -0.28175974
0.17456752 1.0423279 -0.28171158
0.17697522 1.041646 -0.2836006
0.18062086 1.0425566 -0.28418058
-0.82084411 1.04924 -0.28456578
-0.81219029 1.0454688 -0.28005099
-0.80966854 1.0458562 -0.28073677
-0.37756619 1.0486252 -0.28243601
-0.36071649 1.0455436 -0.28169033
-0.35755706 1.046555 -0.28193229
0.15884817 1.0466355 -0.28311196
0.16324456 1.0451785 -0.28151685
0.16922428 1.049081 -0.2825129
0.17185625 1.0470712 -0.28324786
-0.82045245 1.0518979 -0.28162396
-0.81637001 1.0526984 -0.28253093
-0.81284684 1.0530665 -0.28369221
-0.37977207 1.0530062 -0.28310609
-0.366106 1.052407 -0.28244588
-0.36205742 1.0534823 -0.28301513
-0.35914055 1.0534773 -0.28434008
0.16266516 1.0525316 -0.28299591
0.17245468 1.054884 -0.28303665
-0.82032877 1.0590019 -0.28459051
-0.8149904 1.0553348 -0.28006095
-0.38029331 1.0578181 -0.28301841
-0.36098415 1.0563662 -0.28011638
-0.35878187 1.0559115 -0.28164583
0.15956195 1.0556955 -0.28094897
0.16894163 1.0583332 -0.28091654
0.1717145 1.056435 -0.28136536
-0.82006651 1.060782 -0.28262019
-0.81827796 1.0623616 -0.28157535
-0.38284388 1.0621543 -0.28272659
-0.361736 1.0619724 -0.28283772
-0.35902521 1.0626924 -0.28321886
0.1589604 1.0635996 -0.28162819
0.16139451 1.0617594 -0.28228077
0.17410062 1.0638303 -0.28222984
-0.814448 1.0651249 -0.28006479
-0.35862496 1.0654087 -0.28021225
0.1640681 1.0691237 -0.28294516
0.16648325 1.0679953 -0.28255635
0.1709415 1.0665178 -0.28093877
-0.82117289 1.0716962 -0.28216609
-0.81999058 1.0729272 -0.28125614
-0.36208275 1.071969 -0.28219739
0.15789978 1.0726117 -0.28303838
0.16179177 1.0709445 -0.28218687
0.16826952 1.0748252 -0.28278938
0.17200123 1.0733249 -0.28182712
-0.38376406 1.0779641 -0.28185585
-0.36415941 1.0794874 -0.28207564
0.15695068 1.0774932 -0.28255165
0.16111693 1.0779647 -0.28424215
0.16621743 1.0751758 -0.28402352
-0.82526255 1.0825661 -0.28041479
-0.82282126 1.0820621 -0.2821103
-0.38550842 1.0822065 -0.28101391
-0.38457829 1.0802575 -0.28311405
-0.36391699 1.0811325 -0.28025478
0.15744577 1.0817077 -0.2818206
-0.82760942 1.0891747 -0.2844522
-0.38674775 1.0887227 -0.28231591
-0.3841823 1.0882845 -0.28077304
-0.36385316 1.0884515 -0.28294238
0.15802149 1.0887862 -0.28470388
0.16111529 1.0882578 -0.28284323
-0.82758141 1.0916533 -0.28155628
-0.38645777 1.094213 -0.28184971
-0.36313406 1.0907164 -0.28060961
-0.35697666 1.0932784 -0.28038785
-0.35461116 1.0936419 -0.28103113
0.15305004 1.0932492 -0.28232497
0.15779501 1.0908488 -0.28183356
-0.38613033 1.0990918 -0.2842443
-0.36517546 1.0966667 -0.28395101
-0.36247176 1.0992473 -0.28214544
0.15089218 1.0957861 -0.28040141
0.1579922 1.0977396 -0.28333482
-0.83344871 1.1005948 -0.2812641
-0.38862622 1.1018336 -0.28230533
-0.37457231 1.1040993 -0.28061974
-0.36979762 1.1048329 -0.2819182
-0.35993126 1.1007202 -0.28156587
0.1494585 1.1032622 -0.28242788
0.1508714 1.1022949 -0.28265658
0.15539154 1.1007969 -0.28101656
-0.8415671 1.1081667 -0.28156105
-0.83895296 1.1085683 -0.28227195
-0.38852116 1.106889 -0.2826432
-0.36728734 1.106034 -0.28164396
-0.36242482 1.1073636 -0.28228283
0.15343069 1.1091064 -0.2842406
0.1566215 1.1081445 -0.28294098
-0.83868378 1.1103954 -0.28024966
-0.38708353 1.1144494 -0.28010434
-0.37025669 1.1135316 -0.28274995
-0.36740246 1.1138062 -0.28371847
0.14945343 1.1134336 -0.28121322
0.15276685 1.1111654 -0.28174955
-0.84520632 1.117124 -0.28386453
-0.843099 1.1183459 -0.28338379
-0.83967692 1.1197696 -0.28326052
-0.39134201 1.1170478 -0.28253192
-0.36609691 1.1163013 -0.2813811
-0.36268875 1.1171526 -0.28192329
0.15361303 1.1178179 -0.28304979
-0.84203547 1.1212033 -0.28051153
-0.83774364 1.121264 -0.28238121
-0.36654398 1.1237348 -0.28370279
0.14898613 1.1208062 -0.28256685
-0.84681261 1.1281791 -0.28301895
-0.8440792 1.1292009 -0.28305614
-0.39369628 1.1282411 -0.283131
-0.36308116 1.1259136 -0.28271189
0.15297146 1.1276226 -0.28292418
0.15699343 1.125868 -0.28209156
-0.84292614 1.1311834 -0.28125128
-0.37083665 1.1327562 -0.28242204
-0.36853877 1.1322818 -0.28401792
0.1432741 1.1327767 -0.28355989
0.14824198 1.1304555 -0.28276011
0.16358525 1.1307403 -0.28310755
-0.84767079 1.1382008 -0.28372446
-0.36682844 1.1358544 -0.28059906
-0.36319447 1.1364127 -0.28158727
0.1483665 1.1392601 -0.28346497
0.15177523 1.1371979 -0.28361374
-0.84739721 1.1400572 -0.28166965
0.14457327 1.142128 -0.28244805
0.14918135 1.1406009 -0.28077611
-0.85197973 1.1490201 -0.28354019
0.13842723 1.146878 -0.28064731
0.14437538 1.1488099 -0.28459772
0.14808668 1.1481761 -0.28236571
0.15112373 1.1469141 -0.28164327
-0.85330743 1.1506407 -0.28103781
-0.37410086 1.1532813 -0.28096083
0.13993789 1.1540269 -0.28064209
0.14177051 1.1522276 -0.28174806
0.15144029 1.1542629 -0.28434679
-0.85703987 1.1585002 -0.28298089
-0.85336798 1.1596756 -0.28326204
-0.37479869 1.159647 -0.28442258
0.14484973 1.1598696 -0.28165337
0.14867781 1.1569753 -0.28267968
0.15066424 1.155889 -0.28259453
-0.85577625 1.1611395 -0.28045505
-0.85309148 1.161552 -0.28118515
-0.3963488 1.1626654 -0.28188655
-0.37823474 1.1607991 -0.28151655
-0.37441874 1.1622255 -0.28156847
0.13903524 1.1638499 -0.28071225
0.14233053 1.1610466 -0.28205895
0.15162556 1.1639075 -0.28375179
-0.85950941 1.1684895 -0.28460231
-0.38510144 1.1662409 -0.28327236
-0.38361126 1.1681581 -0.28169656
-0.37743282 1.1691074 -0.28337672
-0.37496147 1.1694871 -0.2840488
0.1479242 1.1675415 -0.28151804
0.1519165 1.1653587 -0.28134692
-0.85643888 1.1714203 -0.28255174
-0.85279274 1.1722878 -0.28318256
-0.37717831 1.1708347 -0.28146487
-0.3745797 1.1720781 -0.28118104
0.14140032 1.1709074 -0.28209674
-0.85057575 1.1753949 -0.28053913
-0.37571427 1.1792848 -0.28345799
-0.37261039 1.1797618 -0.28430206
0.14285336 1.1790476 -0.28265265
0.14692362 1.1771456 -0.28199741
-0.85747939 1.1832366 -0.28267539
-0.85422552 1.1828092 -0.28464839
-0.37732089 1.1807342 -0.2810306
-0.37318239 1.18137 -0.28215605
-0.3697437 1.1827465 -0.28209591
0.14003456 1.1816406 -0.28121084
-0.85123098 1.185124 -0.28328642
-0.37650573 1.189821 -0.28358999
0.13980253 1.1899581 -0.2829445
0.14272752 1.1885111 -0.28259265
0.14639005 1.1865594 -0.28236014
-0.86518872 1.1947155 -0.28017932
-0.86164778 1.1933947 -0.28333071
-0.37541643 1.1916938 -0.28188494
-0.37317696 1.1903324 -0.2844952
-0.36627457 1.1941216 -0.28317025
-0.34252018 1.1945622 -0.28054196
-0.33656815 1.1937805 -0.28415102
-0.33408502 1.194162 -0.28482631
0.13832754 1.1909678 -0.28270572
-0.86245865 1.195135 -0.28092176
-0.85972857 1.1955545 -0.28166416
-0.36741254 1.1963342 -0.28005901
-0.36333728 1.1963921 -0.28183433
-0.35824069 1.1983637 -0.28182551
-0.35414302 1.1988605 -0.28309578
-0.34993663 1.1990194 -0.28481144
-0.33694881 1.1959031 -0.28148836
-0.33228827 1.1964736 -0.28292635
-0.32786489 1.1979449 -0.28320035
-0.32239956 1.1993499 -0.28402311
0.14309368 1.1988376 -0.28281444
0.14586201 1.1972218 -0.28284758
-0.86592597 1.2035874 -0.28389555
-0.86303937 1.2049685 -0.28358024
-0.37548345 1.2017046 -0.28135404
-0.37202346 1.2018937 -0.28269708
-0.36695021 1.2041581 -0.28233415
-0.35209042 1.2009624 -0.28155741
-0.34834558 1.2015377 -0.28257579
-0.34455788 1.2024039 -0.28327227
-0.32711005 1.2003224 -0.28075165
-0.32139516 1.2020487 -0.28131053
-0.31685412 1.2028675 -0.28240326
-0.31245476 1.2037051 -0.28341007
-0.30823097 1.2049193 -0.28389516
-0.25760445 1.2045357 -0.28474653
-0.24240184 1.2027783 -0.28243676
-0.23866706 1.2037702 -0.28296185
0.13681544 1.2025769 -0.28262812
0.14101668 1.2010974 -0.28123349
-0.86550182 1.2064655 -0.28070998
-0.86275661 1.2068871 -0.28145653
-0.36268356 1.2053847 -0.28282416
-0.34417221 1.2050213 -0.28037524
-0.33143231 1.2086841 -0.28183851
-0.32837588 1.2087274 -0.28316998
-0.32394263 1.2098348 -0.28387526
-0.3116999 1.2060826 -0.28096133
-0.30643421 1.2072307 -0.28199521
-0.30163959 1.2084762 -0.28270191
-0.29788935 1.2092222 -0.2835227
-0.27800786 1.2095053 -0.2814469
-0.27208352 1.2088616 -0.28162801
-0.26862693 1.2070231 -0.28140333
-0.2582967 1.2068297 -0.28174171
-0.25375572 1.2078153 -0.28263855
-0.24873734 1.2087784 -0.28377795
-0.24479985 1.2098634 -0.28428537
-0.23875992 1.2058462 -0.28048384
0.1411124 1.2086649 -0.28380105
-0.86907405 1.2140054 -0.28470713
-0.32743037 1.2110044 -0.28092557
-0.32250151 1.2113353 -0.28276622
-0.31694233 1.2131844 -0.28311059
-0.31357074 1.2139865 -0.28369391
-0.30001444 1.2112703 -0.28015813
-0.29614893 1.211622 -0.28149369
-0.29159439 1.21214 -0.28294551
-0.28780746 1.2141151 -0.28234029
-0.27698907 1.2118117 -0.28144044
-0.27387258 1.2105311 -0.28183028
-0.26713771 1.2122281 -0.28251317
-0.26345339 1.2124707 -0.28273949
-0.25728694 1.2140799 -0.28426093
-0.25293976 1.212661 -0.2806918
-0.2484819 1.2109778 -0.28131244
-0.2434434 1.2109119 -0.28366843
-0.23772576 1.2135905 -0.28311086
-0.23445486 1.2148131 -0.28315538
0.13828027 1.2114456 -0.28209192
0.14031678 1.210332 -0.28200462
-0.86772752 1.2170408 -0.28175426
-0.31094563 1.2152425 -0.28340718
-0.30844909 1.2156261 -0.28408608
-0.28394708 1.2160008 -0.28187355
-0.27798265 1.218048 -0.28216854
-0.27417892 1.2177842 -0.28419816
-0.26269919 1.2161862 -0.28179839
-0.25777444 1.216035 -0.28227258
-0.25138184 1.2181967 -0.28379312
-0.24825175 1.2176403 -0.28210917
-0.23734979 1.2185447 -0.28225678
-0.23294631 1.2169598 -0.28190228
-0.22775416 1.2179574 -0.28303835
-0.22260565 1.2186532 -0.28260261
-0.21934231 1.2171832 -0.28171402
-0.21184658 1.2193393 -0.28400803
-0.2076851 1.2178231 -0.28270185
-0.20282179 1.2197285 -0.28044593
-0.19817822 1.2187698 -0.2836709
-0.19465262 1.2195926 -0.28262269
0.1383301 1.2190539 -0.28463805
-0.27441609 1.2202921 -0.28114796
-0.25375062 1.2209165 -0.28177828
-0.24615848 1.2231033 -0.28394434
-0.24180456 1.2207633 -0.28369713
-0.23945874 1.2212747 -0.28093135
-0.23420115 1.2231898 -0.28468734
-0.22740184 1.220484 -0.28370246
-0.22303526 1.2207878 -0.28144258
-0.21723384 1.2213216 -0.28339624
-0.21340603 1.2218713 -0.28305125
-0.20825656 1.223225 -0.28372207
-0.20232563 1.2222928 -0.2833856
-0.19781439 1.2212189 -0.28136408
-0.19223142 1.2231253 -0.28280652
-0.18788889 1.2232529 -0.28245133
-0.183395 1.2243853 -0.28376669
-0.16649859 1.2229376 -0.28025311
-0.16227752 1.2244928 -0.28159118
-0.15188438 1.2246791 -0.28433359
0.13452002 1.2217562 -0.28388172
0.13746591 1.2216192 -0.28156579
0.14137256 1.2200727 -0.28052247
-0.87730622 1.2265377 -0.2807382
-0.87453079 1.2269642 -0.28149301
-0.24868882 1.2255876 -0.2824173
-0.20176622 1.2273891 -0.28368911
-0.19742939 1.2272481 -0.28359815
-0.19278708 1.2263007 -0.28234032
-0.18760172 1.226506 -0.28144637
-0.18222457 1.2270533 -0.28211913
-0.17773843 1.2275954 -0.28255785
-0.17265946 1.2286551 -0.28375566
-0.16790013 1.2281256 -0.28199905
-0.16401085 1.2261946 -0.28054515
-0.15720862 1.2284514 -0.2823171
-0.15289718 1.2272003 -0.28177568
-0.14741705 1.2286409 -0.28218982
-0.14431627 1.2292653 -0.28304061
-0.12506032 1.2259578 -0.28420186
-0.12311257 1.2284636 -0.28214222
-0.11875424 1.2285817 -0.28397474
0.1373266 1.2291828 -0.28433999
0.14100295 1.2285548 -0.28212899
-0.8826977 1.2338705 -0.28415579
-0.18024282 1.2331846 -0.28404173
-0.17679584 1.2317524 -0.28322181
-0.17297694 1.2309921 -0.28116798
-0.16686779 1.231822 -0.2831372
-0.16211554 1.2320343 -0.28294387
-0.15884972 1.2331784 -0.28242606
-0.15098709 1.2331994 -0.28281543
-0.14795092 1.2319008 -0.28214839
-0.14242643 1.2312925 -0.28133535
-0.13791503 1.2330307 -0.28271157
-0.13290629 1.2326789 -0.28233615
-0.12923056 1.2336525 -0.28453356
-0.12196171 1.2339673 -0.28265238
-0.11789428 1.2318957 -0.28133512
-0.11326897 1.2325702 -0.28228584
-0.10854536 1.2339401 -0.28199145
-0.10357186 1.2338654 -0.28375691
-0.095558628 1.2304217 -0.28105834
-0.091101952 1.2328109 -0.28145275
-0.086821117 1.2328621 -0.28214607
-0.082267247 1.2335619 -0.28338447
-0.078434229 1.2346997 -0.2837826
-0.054574441 1.2349628 -0.2830171
-0.036897145 1.2342601 -0.28058919
0.13366137 1.2329007 -0.28195086
0.13652337 1.230866 -0.28252637
0.14019972 1.230238 -0.28031537
-0.88138419 1.2366139 -0.28153032
-0.15627638 1.2352405 -0.28329253
-0.15192965 1.2363263 -0.28398407
-0.14715473 1.2382777 -0.2834748
-0.14201763 1.2364157 -0.28272724
-0.13071327 1.2379817 -0.28289565
-0.12701575 1.2362403 -0.28321528
-0.12410321 1.2363541 -0.28182277
-0.11556216 1.2390823 -0.28148773
-0.11248259 1.2365787 -0.28257355
-0.10757633 1.2354746 -0.28091666
-0.10326126 1.2361631 -0.28208452
-0.09859173 1.2370265 -0.28347021
-0.08760789 1.2392118 -0.28318861
-0.081911832 1.2363548 -0.28082559
-0.076780632 1.2371994 -0.28159696
-0.071882948 1.2382038 -0.28274596
-0.068024553 1.2390095 -0.28279141
-0.052810319 1.2363265 -0.28221476
-0.047806196 1.238461 -0.28197297
-0.043848854 1.238796 -0.28336963
-0.030682895 1.2368456 -0.28036538
-0.028295543 1.2372124 -0.28101459
-0.022142764 1.2393808 -0.2812525
-0.017552461 1.238863 -0.28393608
-0.013007881 1.2384758 -0.28403568
-0.0061667077 1.2372446 -0.28134391
-0.0020297822 1.2379885 -0.28234184
0.0032025862 1.2393337 -0.28312954
0.0067684972 1.2398816 -0.28409925
0.13805856 1.2398256 -0.28377914
0.1406801 1.2386006 -0.28335708
-0.12003996 1.2405663 -0.28311241
-0.11798787 1.2402158 -0.28187826
-0.10587297 1.2408314 -0.28449515
-0.10268577 1.2407689 -0.2818625
-0.096555322 1.2440068 -0.28371674
-0.092945218 1.2424222 -0.28298351
-0.088550784 1.2411877 -0.28105959
-0.081139781 1.2440168 -0.28441083
-0.076975904 1.2433056 -0.28190663
-0.072296292 1.2411137 -0.28126031
-0.066259459 1.2430432 -0.28163552
-0.062191542 1.2428695 -0.28195089
-0.057435453 1.2433988 -0.28255981
-0.05206899 1.2442408 -0.28392574
-0.046985105 1.2429613 -0.28257006
-0.042808365 1.2414536 -0.28094155
-0.03800429 1.2418672 -0.2833854
-0.033226863 1.2438798 -0.28332508
-0.028642528 1.2438636 -0.28429964
-0.016826747 1.2411489 -0.28158182
-0.01209646 1.2426369 -0.28197512
-0.0088279303 1.2426498 -0.28343809
-0.00059330941 1.2418264 -0.2817013
0.0030512018 1.2409344 -0.28118274
0.0083243754 1.2425566 -0.28166389
0.013201334 1.2441179 -0.28203735
0.016767241 1.2446657 -0.28300706
0.062776193 1.2447708 -0.28119662
0.13331868 1.2433553 -0.28258875
0.13708948 1.2418562 -0.28159103
-0.89010209 1.2454474 -0.28328928
-0.88840932 1.2476251 -0.28149927
-0.88352001 1.2475545 -0.2837933
-0.87858349 1.2491348 -0.28417125
-0.08890184 1.2482609 -0.28474355
-0.083979845 1.2459611 -0.28395113
-0.076610282 1.2494628 -0.28435367
-0.071920909 1.247685 -0.28298479
-0.068150081 1.2458196 -0.2825312
-0.056937017 1.2479748 -0.28363237
-0.053216726 1.2463411 -0.28261739
-0.049320251 1.245966 -0.28165594
-0.042085879 1.2487538 -0.28366664
-0.038533702 1.247407 -0.28262973
-0.034277596 1.24594 -0.2811695
-0.027005427 1.2482566 -0.28276336
-0.023149025 1.2467866 -0.2823022
-0.012419157 1.2494657 -0.28303784
-0.0089170774 1.2474129 -0.28093627
0.0023933083 1.248325 -0.28344965
0.0068246792 1.2485881 -0.2835483
0.012760177 1.2478588 -0.28226811
0.018291047 1.2466935 -0.28248081
0.023731722 1.2493885 -0.28092632
0.027873013 1.2490786 -0.28285113
0.03773981 1.2498286 -0.28127992
0.04286509 1.2462828 -0.2819972
0.048116386 1.2473013 -0.28284475
0.06710992 1.2460798 -0.28162044
0.07275255 1.2477967 -0.28215763
0.077201709 1.248997 -0.28276104
0.082573682 1.2464983 -0.28169593
0.087623566 1.245813 -0.28157037
0.091966361 1.2480812 -0.28087264
0.13120033 1.2456599 -0.28097636
0.13942239 1.2488604 -0.28308219
-0.88250542 1.2504499 -0.28085434
-0.87829435 1.251097 -0.28199947
-0.057559468 1.2502902 -0.28072482
-0.035554651 1.2523737 -0.28461072
-0.03131317 1.2516493 -0.28205988
-0.029192433 1.251287 -0.28078443
-0.021430433 1.2539923 -0.28401926
-0.016818235 1.2517109 -0.28346446
-0.013195214 1.251092 -0.28128558
-0.0024549442 1.252516 -0.28387687
0.0010603539 1.2516081 -0.28198302
0.0075503932 1.250874 -0.28119403
0.012819446 1.2529923 -0.28328532
0.017387016 1.2523124 -0.28298172
0.020646973 1.2527196 -0.2837497
0.027975047 1.2532275 -0.28236121
0.032780759 1.2523568 -0.28180432
0.03693977 1.2524854 -0.28234327
0.042148478 1.2539786 -0.28355718
0.045906659 1.2539186 -0.2840957
0.054802682 1.2518834 -0.28049138
0.057168193 1.2522469 -0.28113464
0.063081965 1.2531555 -0.28274286
0.066630229 1.2537006 -0.28370777
0.078348033 1.2512197 -0.28216004
0.082724385 1.2521987 -0.2824145
0.089152269 1.2520391 -0.28459582
0.092925303 1.2542266 -0.28373507
0.096797615 1.253356 -0.28329468
0.13311231 1.2522807 -0.28339708
0.13638282 1.2509413 -0.28259021
-0.89583272 1.2566471 -0.28201538
-0.89197254 1.257883 -0.28231096
-0.026468864 1.2563466 -0.28483042
-0.022206489 1.2556185 -0.28226697
0.0070892745 1.2568039 -0.28323644
0.010911047 1.2558831 -0.28133637
0.018037453 1.257623 -0.28249699
0.022713184 1.2566166 -0.2824229
0.026727283 1.2562565 -0.28114802
0.037838604 1.2591068 -0.28328773
0.043138471 1.2566241 -0.28199071
0.047473211 1.2569556 -0.28167599
0.052414786 1.2580878 -0.28410971
0.057319257 1.2582006 -0.28243777
0.061338633 1.2559797 -0.28172877
0.069903478 1.2599756 -0.28235966
0.072532378 1.257988 -0.28306445
0.076335818 1.2568253 -0.28153899
0.087125674 1.2590916 -0.28283674
0.091218822 1.2571862 -0.28186235
0.09811762 1.25824 -0.2813735
0.10278176 1.2584403 -0.28415748
0.11436942 1.2563262 -0.28132886
0.12989797 1.255953 -0.28069019
0.033350192 1.2613974 -0.283723
0.037699126 1.2606544 -0.28110754
0.044749819 1.2634071 -0.28488058
0.048656553 1.2622294 -0.28328934
0.052447509 1.2609438 -0.28195736
0.06431362 1.2632383 -0.28229272
0.067857243 1.2610945 -0.28244737
0.083435737 1.2600311 -0.28459653
0.097875126 1.2632039 -0.28341123
0.10074826 1.2625189 -0.28197193
0.11279214 1.2632025 -0.28319356
0.11551147 1.2646569 -0.28006232
0.13182068 1.2635992 -0.28356311
-0.90257913 1.2665198 -0.28344628
0.10262369 1.267849 -0.28338277
0.10741239 1.2682886 -0.28246182
0.11120643 1.2661731 -0.28149137
0.12309904 1.2686324 -0.28354371
0.12792039 1.2668445 -0.2820769
0.10381822 1.2707256 -0.28054726
0.1120176 1.2746073 -0.28414381
0.11735708 1.2723497 -0.28293189
0.12067381 1.2715588 -0.28127035
0.11456208 1.2757427 -0.28028113
-0.82271665 0.88865119 -0.27775249
-0.81870431 0.88958633 -0.27846974
-0.83372414 0.89361119 -0.27820128
-0.82312793 0.89049947 -0.27539751
-0.81735164 0.89103305 -0.27738374
-0.81326634 0.89224225 -0.27781227
-0.80797052 0.8928284 -0.27951944
-0.80186528 0.89029205 -0.27561656
-0.79582161 0.89280665 -0.27539888
-0.78305155 0.89476871 -0.2788716
-0.80190063 0.89535391 -0.27930081
-0.79652786 0.89830339 -0.27826953
-0.79341865 0.89878106 -0.27911505
-0.78629518 0.89585638 -0.27612832
-0.78243679 0.89740086 -0.27606088
-0.77851009 0.89863855 -0.27638423
-0.77392626 0.89894634 -0.27809605
-0.79092664 0.90022588 -0.27854654
-0.77652967 0.90052891 -0.27506161
-0.77304685 0.90106404 -0.27600873
-0.76944453 0.90241051 -0.27605772
-0.77388281 0.90762341 -0.27757367
-0.77821535 0.91426146 -0.27907193
-0.77664298 0.91679019 -0.27681568
-0.77406782 0.91649961 -0.27832109
-0.77665287 0.92374784 -0.27828676
-0.77340674 0.92496109 -0.27833092
-0.77669495 0.92606378 -0.27554995
-0.78033996 0.93450946 -0.27523798
-0.7773484 0.93389171 -0.27731571
-0.77560896 0.93523628 -0.27652454
-0.78131974 0.94216353 -0.27706003
-0.78419811 0.94881797 -0.27758977
-0.78200805 0.95180458 -0.27507553
-0.78726757 0.95686549 -0.27800512
-0.7846213 0.958911 -0.27680153
-0.36008364 0.95895767 -0.27964133
-0.35907865 0.95989364 -0.27739134
-0.78986531 0.96399844 -0.27970701
-0.36712718 0.9645915 -0.27729493
-0.36245611 0.9617998 -0.27744785
-0.35879683 0.96196294 -0.27606076
-0.34849596 0.96213216 -0.27744776
-0.79184163 0.96657676 -0.27578756
-0.78878635 0.96675217 -0.27696356
-0.36741149 0.96800137 -0.27743369
-0.36276403 0.96719849 -0.27762899
-0.35924804 0.96581042 -0.27668446
-0.35289279 0.96777654 -0.27847597
-0.34897268 0.9687559 -0.27909961
-0.34364834 0.9658792 -0.27524298
-0.79206049 0.97370768 -0.27856773
-0.37021244 0.97250128 -0.27612063
-0.36840901 0.97126669 -0.27641255
-0.36051342 0.97370732 -0.27771044
-0.34752786 0.97123986 -0.27683809
-0.34370676 0.97227937 -0.27734634
-0.79168624 0.97624749 -0.27575654
-0.78872031 0.97628945 -0.27704859
-0.37096161 0.97855735 -0.27570224
-0.36999512 0.97653216 -0.27788442
-0.34697905 0.97730166 -0.27961332
-0.34231532 0.97953314 -0.27910388
-0.79422373 0.98347813 -0.27737126
-0.37202162 0.98341936 -0.27732393
-0.34652227 0.98040164 -0.27618214
-0.34419042 0.98151737 -0.27592742
-0.79316157 0.98530424 -0.27570868
-0.3720153 0.98847771 -0.2764186
-0.34831974 0.9865939 -0.27774319
-0.79807454 0.99282914 -0.27751023
-0.375119 0.99006629 -0.27803582
-0.37354609 0.99305457 -0.27792144
-0.3495656 0.99350715 -0.2787075
-0.80342543 0.99970204 -0.2782723
-0.37702832 0.99675959 -0.27766308
-0.37376556 0.99582601 -0.27625972
-0.34815857 0.99563414 -0.27684781
-0.80276221 1.0014842 -0.27648106
-0.79883182 1.0009679 -0.27886432
-0.37674123 1.0008372 -0.27929795
-0.37397006 1.0027145 -0.27810815
-0.34947896 1.0034194 -0.27675521
-0.8075549 1.0080608 -0.277843
-0.80440205 1.0089673 -0.27820513
-0.37586242 1.0070961 -0.27718624
-0.37325636 1.0057981 -0.27688575
-0.35660288 1.009194 -0.2763975
-0.35216445 1.009362 -0.27820784
-0.80661887 1.0103148 -0.27562124
-0.80414754 1.0106946 -0.27629328
-0.37630191 1.0127492 -0.27710164
-0.37411836 1.012091 -0.27621228
-0.35260701 1.0113505 -0.2756741
-0.3490319 1.0118998 -0.27664635
-0.81167173 1.0164657 -0.27736527
-0.8080675 1.0178676 -0.27735019
-0.37677538 1.0189998 -0.27615866
-0.37372899 1.0173341 -0.2760281
-0.35343987 1.0173514 -0.27789575
-0.34992096 1.0186667 -0.27794364
-0.37386376 1.0221088 -0.27698821
-0.35501224 1.0232594 -0.27989215
-0.3547776 1.0248517 -0.27812976
-0.34885353 1.0208964 -0.27580982
-0.81202644 1.0271593 -0.27751002
-0.37318203 1.0267564 -0.27743855
-0.35238215 1.0259979 -0.27786809
-0.81696606 1.0339229 -0.27858639
-0.81437171 1.0348924 -0.27862173
-0.37757939 1.0326176 -0.27778351
-0.37422931 1.0334488 -0.27632979
-0.35604113 1.0327885 -0.27788496
-0.35472029 1.0341638 -0.27686846
-0.81745768 1.0361317 -0.2757718
-0.81238329 1.0367402 -0.27735278
-0.80935502 1.0356632 -0.27998593
-0.37808147 1.0369514 -0.27759588
0.16339868 1.038126 -0.27995533
0.1654045 1.0377834 -0.27874902
0.17208439 1.0366116 -0.27765626
0.17656392 1.0385557 -0.27740055
-0.81723392 1.0446938 -0.27867943
-0.38056576 1.041651 -0.27750158
-0.37694767 1.0404519 -0.27618885
-0.36457705 1.0410765 -0.27554595
-0.35705379 1.042008 -0.27785525
0.15719581 1.0434029 -0.27742037
0.16794571 1.0443757 -0.27868956
0.17130367 1.0438019 -0.27667004
0.17839873 1.0410707 -0.27527928
0.18282507 1.0417507 -0.276483
-0.81697416 1.0464563 -0.27672863
-0.81339169 1.0473512 -0.27729854
-0.8093223 1.0482063 -0.27813566
-0.37837976 1.0468714 -0.27581447
-0.36151466 1.0477879 -0.27869564
0.15445958 1.045276 -0.27697748
0.16291723 1.0475878 -0.27821738
0.16742556 1.0461118 -0.27655494
0.17057 1.0453393 -0.27501351
0.17768767 1.0469261 -0.27847654
-0.8213284 1.054361 -0.27833742
-0.81752563 1.0549452 -0.27937153
-0.38000086 1.053727 -0.27693868
-0.37939221 1.0524515 -0.27831301
-0.36077279 1.050269 -0.27611974
0.15802139 1.0503068 -0.27836472
0.1670135 1.0537136 -0.27752113
0.17078601 1.0516509 -0.27735943
-0.82233495 1.0559381 -0.27603146
-0.81811732 1.0572355 -0.2764163
-0.81472933 1.0571067 -0.27809975
-0.38156748 1.0582563 -0.27948794
-0.36514953 1.0588982 -0.27526122
-0.3610124 1.0587409 -0.2773169
-0.35830361 1.0591569 -0.27805352
0.15882501 1.0572398 -0.27928504
0.16228406 1.0562234 -0.27783689
0.16820143 1.0598842 -0.27924526
0.17097431 1.057986 -0.27969408
-0.81784391 1.0646032 -0.27914131
-0.36328879 1.0646921 -0.27894396
0.15735117 1.0603281 -0.2759572
0.16265568 1.0636806 -0.27834761
0.16695307 1.061522 -0.2778796
-0.81778663 1.0666003 -0.27682352
-0.36144027 1.0664097 -0.27776429
0.15761811 1.0673904 -0.27714437
0.16778238 1.0692053 -0.27964771
0.17186865 1.0685073 -0.27719021
-0.82292742 1.0742251 -0.27840507
-0.81972688 1.0747168 -0.27927542
-0.36218429 1.0742404 -0.27948591
-0.35557258 1.0706564 -0.27543449
0.159421 1.0749292 -0.27829432
0.16256242 1.0733513 -0.27795219
0.1662944 1.0723233 -0.27628794
0.17112465 1.0700663 -0.27551031
-0.82330382 1.0759163 -0.2762503
-0.81939727 1.0769536 -0.2767995
-0.38365215 1.0787638 -0.27660298
-0.36221284 1.0766375 -0.27666005
0.15709838 1.0765194 -0.2779184
0.16072014 1.0761393 -0.27538571
0.16864029 1.0779978 -0.27775893
0.17162643 1.07569 -0.27863386
-0.82757127 1.0839696 -0.27772376
-0.82435399 1.0844638 -0.27859867
-0.38376856 1.0842962 -0.27642149
-0.3635534 1.0836002 -0.27752352
0.157258 1.0834178 -0.27944076
-0.82859313 1.0855708 -0.27538264
-0.82364982 1.086682 -0.27631429
-0.38535574 1.0851641 -0.27648953
-0.38340616 1.0899498 -0.27763507
0.15371141 1.0869 -0.27730042
0.1568089 1.085412 -0.276862
-0.82767248 1.0944672 -0.27821311
-0.38558358 1.0912209 -0.27760899
-0.38402897 1.0912549 -0.27622882
-0.36146405 1.0942048 -0.27727133
-0.35934219 1.0929149 -0.27974457
0.15780362 1.0937796 -0.27747199
-0.82826853 1.096143 -0.2759771
-0.38677222 1.0975144 -0.27721387
-0.36706308 1.0996244 -0.27962643
-0.35885495 1.0962216 -0.27608466
0.14939006 1.0989338 -0.27700973
0.15168801 1.0970957 -0.27777526
-0.83551377 1.1038306 -0.27653301
-0.83311391 1.102867 -0.2787492
-0.38788384 1.104425 -0.27782062
-0.36744747 1.1022719 -0.27634585
-0.36269292 1.1030024 -0.27763879
0.14863901 1.1005076 -0.27531391
0.15426005 1.103168 -0.27846175
0.15746188 1.1020403 -0.27739894
-0.84129786 1.1099938 -0.27953875
-0.37169322 1.1078032 -0.27757525
-0.36864758 1.1086788 -0.27792507
-0.36157405 1.1053395 -0.27540222
0.14860845 1.1070368 -0.277547
0.15312858 1.1055388 -0.27590698
-0.8408941 1.1127343 -0.27650529
-0.83827984 1.1131361 -0.27721617
-0.388551 1.1119452 -0.27515697
-0.36650878 1.1113179 -0.27579561
-0.36340755 1.1112508 -0.27727687
0.15312512 1.1129524 -0.2787883
0.15569925 1.1123667 -0.27745694
-0.39127076 1.1182084 -0.27810067
-0.38892779 1.1171994 -0.27759594
-0.3686299 1.1182064 -0.27799985
-0.36484075 1.1184608 -0.27941489
0.14807862 1.1173162 -0.27662072
0.15143916 1.115283 -0.2767674
0.15563948 1.1189371 -0.279654
-0.84370273 1.1229676 -0.27768698
-0.83913535 1.1234449 -0.27919251
-0.36342436 1.1212537 -0.27677798
-0.3593013 1.1242284 -0.27515188
0.14784405 1.1231995 -0.27998814
0.15270992 1.1226615 -0.27662635
-0.83872914 1.1262014 -0.27614152
-0.37114674 1.1271448 -0.27761966
-0.36897218 1.1285768 -0.27692264
-0.36379001 1.1290985 -0.27865398
0.14324176 1.1272095 -0.27796647
-0.84692889 1.1332331 -0.27703559
-0.84344411 1.1335106 -0.27828586
-0.36462301 1.1314408 -0.27552861
0.14828761 1.133393 -0.27835682
0.15129688 1.1321428 -0.277641
-0.84339213 1.135324 -0.27618158
-0.37102044 1.1368651 -0.27751708
-0.36685798 1.1383322 -0.27767804
0.14307988 1.137228 -0.2771129
-0.85216248 1.142954 -0.27611539
-0.84864706 1.1425868 -0.27813599
-0.37313879 1.1446261 -0.27869901
0.14764336 1.1438236 -0.27730346
0.1514844 1.1411942 -0.27792519
-0.37532243 1.1459535 -0.27615374
-0.37106228 1.1466081 -0.27731228
0.13900103 1.14974 -0.27590463
0.14276557 1.1467289 -0.27715871
0.14893502 1.1480393 -0.27787423
0.15208609 1.1489792 -0.27775231
-0.85676783 1.1529292 -0.27678749
-0.85303229 1.1525078 -0.27897128
-0.37384877 1.1549923 -0.27906722
0.14340712 1.1549206 -0.27634755
0.14772701 1.1523992 -0.27639928
0.15131384 1.1505975 -0.27600864
-0.3734706 1.1575584 -0.27622673
0.13839339 1.1572634 -0.27715471
0.14051412 1.1569011 -0.27587929
0.1512433 1.1587775 -0.27780825
-0.86114568 1.1603144 -0.27899489
-0.85679615 1.1631224 -0.27766699
-0.85192007 1.163566 -0.27935165
-0.3959443 1.1646829 -0.27854317
-0.39440054 1.1631672 -0.27947479
-0.37714228 1.1633193 -0.27905339
-0.37403876 1.1648042 -0.27871436
0.14213553 1.1628226 -0.27958739
0.14756 1.1623938 -0.27558541
0.15046725 1.1604036 -0.27605596
-0.85253853 1.1653049 -0.27703136
-0.84966946 1.1669683 -0.27637684
-0.39781329 1.1668801 -0.27687714
-0.37706491 1.1660194 -0.2759198
-0.37206131 1.1673483 -0.27662331
0.13916261 1.1663177 -0.27693734
0.14039038 1.1651121 -0.27767825
0.14821516 1.1689929 -0.2791132
-0.85597545 1.1745653 -0.27907073
-0.8532756 1.17498 -0.27980494
-0.3775779 1.1735871 -0.27805448
-0.37419793 1.174669 -0.27831328
0.14233258 1.1739002 -0.27685332
0.14743529 1.170627 -0.27735233
-0.85245502 1.1775653 -0.27714252
-0.37765044 1.1758268 -0.27539331
-0.37394339 1.1763963 -0.27640143
0.14835051 1.1787119 -0.27845031
0.15021022 1.176886 -0.27957264
-0.37693727 1.1833375 -0.27814919
-0.373932 1.1839688 -0.27876741
0.14194098 1.1828233 -0.27782354
0.14663699 1.1812669 -0.27611971
-0.86181122 1.1853529 -0.27823287
-0.85850394 1.1867886 -0.2780441
-0.37655368 1.1859407 -0.27526778
-0.3734498 1.1864176 -0.27611184
-0.36786282 1.1872761 -0.27763122
0.14629012 1.1888499 -0.27904281
-0.37590581 1.1938925 -0.27908355
-0.35095537 1.1949625 -0.2762576
-0.34624487 1.19399 -0.27952906
-0.33534598 1.1924556 -0.27501136
-0.33122706 1.1930885 -0.27613145
-0.32710817 1.1937215 -0.27725157
0.13871826 1.1943113 -0.27740458
0.14213544 1.191833 -0.278164
0.14658391 1.1903154 -0.27661449
-0.86742681 1.1976352 -0.27574092
-0.86340201 1.1977876 -0.27738258
-0.37714165 1.1965449 -0.27541202
-0.37372202 1.1960959 -0.27748555
-0.36831796 1.1984692 -0.27714446
-0.36341059 1.1986545 -0.27914608
-0.34732556 1.1965379 -0.27605042
-0.34131494 1.1978006 -0.27728686
-0.33779114 1.1978333 -0.27884224
-0.33207625 1.1995593 -0.27940112
-0.32685363 1.1954488 -0.27533972
0.13596512 1.1959182 -0.27737159
0.14576152 1.1995249 -0.27951193
-0.37522513 1.2034578 -0.27941358
-0.36240077 1.2013679 -0.27641878
-0.35783514 1.2021911 -0.27751744
-0.35441554 1.2017421 -0.27959093
-0.33802834 1.2003411 -0.27579203
-0.3316927 1.2021626 -0.27651972
-0.32676908 1.2026365 -0.2781904
-0.32213148 1.2039144 -0.27878809
-0.25206712 1.2021294 -0.27882728
-0.24949324 1.2033609 -0.27854612
0.13928533 1.2036791 -0.27887863
0.14303158 1.2027344 -0.27707845
-0.86727804 1.2080678 -0.2780264
-0.32510129 1.2057197 -0.27532646
-0.32179049 1.2062284 -0.27622682
-0.31677228 1.2068453 -0.27777246
-0.3130289 1.2085923 -0.27741513
-0.30994686 1.2097443 -0.27745709
-0.29700309 1.2067878 -0.27553311
-0.28946176 1.2087905 -0.27659339
-0.28299874 1.2089396 -0.27934146
-0.27158916 1.2088697 -0.27871239
-0.26856697 1.2088976 -0.27815306
-0.26422331 1.2085593 -0.27703169
-0.25807431 1.209504 -0.27870387
-0.24911509 1.2059273 -0.27570567
-0.24246149 1.2077856 -0.27653396
-0.23838179 1.2084124 -0.27764341
0.13350046 1.208477 -0.27669752
0.13768595 1.2059844 -0.27682173
-0.86383832 1.2104715 -0.27676126
-0.33104664 1.2113014 -0.27894151
-0.32592496 1.2129411 -0.27933368
-0.30825245 1.2113616 -0.27632552
-0.3030979 1.2123046 -0.27755028
-0.29884577 1.2137116 -0.27782199
-0.29479247 1.213769 -0.27958772
-0.28686315 1.210034 -0.27630952
-0.28226322 1.2114521 -0.27632681
-0.27720404 1.2132102 -0.27775171
-0.27341971 1.2119808 -0.27832645
-0.26818079 1.211903 -0.27766532
-0.26232955 1.2132386 -0.27759168
-0.25905731 1.2116441 -0.27691382
-0.25307754 1.211952 -0.27809107
-0.24847087 1.2134998 -0.27835801
-0.23643653 1.2145544 -0.27642345
-0.23284236 1.2124476 -0.27608082
-0.22822721 1.2137347 -0.27598989
-0.22388047 1.2148207 -0.27668139
0.13763309 1.2138531 -0.27906871
0.14051265 1.2141268 -0.27619946
-0.8710953 1.2185973 -0.27840444
-0.86822116 1.2197932 -0.27830094
-0.31043142 1.2187324 -0.2795445
-0.29701984 1.2151229 -0.27699152
-0.29336295 1.2164118 -0.27713296
-0.28708738 1.2166489 -0.27969256
-0.27938232 1.219529 -0.27979743
-0.26688808 1.2164783 -0.27735731
-0.26316476 1.2162513 -0.27710664
-0.25689927 1.2179272 -0.27870101
-0.25282159 1.2166394 -0.27741525
-0.24640153 1.2189802 -0.27837008
-0.24325612 1.2176898 -0.27726585
-0.23804198 1.2177203 -0.27758169
-0.23199107 1.2185811 -0.27828223
-0.22892113 1.2184486 -0.27611837
-0.22118054 1.2169076 -0.27545342
-0.2176735 1.2186408 -0.27718845
-0.21297091 1.2177569 -0.27644631
-0.20697539 1.218509 -0.2784577
-0.20365679 1.2188609 -0.27771518
0.13494937 1.2173741 -0.27613282
0.1364733 1.2155825 -0.2774913
-0.25248024 1.2227423 -0.27797943
-0.24786316 1.2210457 -0.27655149
-0.23750664 1.2209413 -0.27975735
-0.23257278 1.2209308 -0.27693847
-0.22685595 1.2219392 -0.27855608
-0.22252505 1.2219115 -0.2775062
-0.21931368 1.2219923 -0.2766625
-0.2111371 1.2201231 -0.27622244
-0.20728049 1.2211268 -0.27709478
-0.20236269 1.2222974 -0.27783522
-0.19742113 1.2234297 -0.27779299
-0.19277105 1.2246169 -0.27925476
-0.18590865 1.2240661 -0.2786189
-0.17598546 1.223143 -0.27572182
-0.16746508 1.224452 -0.27803886
-0.15145978 1.2235565 -0.27508077
0.13801742 1.2237231 -0.27796865
0.14196907 1.2230481 -0.27559206
-0.87888759 1.2296126 -0.27641475
-0.87424493 1.228904 -0.2793459
-0.20215647 1.2260628 -0.27680463
-0.19766791 1.2257365 -0.27592859
-0.19188552 1.2274344 -0.27748728
-0.18752362 1.2272987 -0.27730706
-0.18229003 1.2288516 -0.2786361
-0.17728119 1.2287076 -0.27625296
-0.17208572 1.2259487 -0.2758157
-0.16722262 1.2284214 -0.2775867
-0.16254406 1.2273107 -0.27756378
-0.15777525 1.2277615 -0.27756655
-0.15318984 1.2290236 -0.27886981
-0.1477965 1.2277464 -0.276281
-0.13642499 1.2291764 -0.27528533
-0.13287422 1.2291703 -0.27689829
-0.12819527 1.228786 -0.27946535
-0.11484561 1.2274584 -0.27581343
0.13418385 1.2266858 -0.27684546
0.1382425 1.2252233 -0.27554747
0.14240552 1.2298611 -0.27898878
-0.18565039 1.2307273 -0.27530456
-0.18295683 1.2311543 -0.27721629
-0.17721057 1.2315652 -0.27967867
-0.17231198 1.2326765 -0.27796733
-0.1677123 1.2316415 -0.27665362
-0.15624464 1.2314878 -0.27731425
-0.15241896 1.2308247 -0.27693725
-0.14748362 1.2331369 -0.27757612
-0.14280322 1.2333112 -0.27712339
-0.13531196 1.2342441 -0.27976608
-0.13135704 1.2329986 -0.27823412
-0.12791926 1.2317127 -0.27668321
-0.12317777 1.2323636 -0.27720559
-0.11807478 1.2333901 -0.2789652
-0.11286561 1.2341802 -0.27901056
-0.10277119 1.2335113 -0.27668017
-0.097197153 1.2326533 -0.277417
-0.091930307 1.233724 -0.27882409
-0.087829433 1.2349031 -0.27929509
-0.075919375 1.2333221 -0.27528939
-0.071121149 1.2340593 -0.27659422
-0.04047817 1.2337098 -0.27961537
0.13418163 1.2343578 -0.27934128
0.13799217 1.2330444 -0.27803391
0.14079906 1.2332275 -0.27536151
-0.88567126 1.2383698 -0.27753112
-0.88305306 1.2376283 -0.27958524
-0.17568617 1.2352178 -0.27712438
-0.14758584 1.2358097 -0.2760289
-0.14077574 1.2360361 -0.27651536
-0.13719821 1.2366045 -0.27775916
-0.13338487 1.2360568 -0.27645546
-0.12209391 1.2369969 -0.27826452
-0.11786577 1.2355458 -0.27634847
-0.11208023 1.2374837 -0.27809262
-0.10807148 1.2373501 -0.27781311
-0.10492808 1.2365469 -0.27616066
-0.096591562 1.2392461 -0.27891323
-0.093001373 1.236499 -0.27638671
-0.08696878 1.2363826 -0.27794796
-0.081827171 1.2384818 -0.27774274
-0.077768311 1.2375311 -0.27727097
-0.073577464 1.2357264 -0.27636823
-0.067275405 1.236289 -0.2757169
-0.062353641 1.2378647 -0.27609378
-0.057555415 1.2386019 -0.27739859
-0.053356972 1.239247 -0.27854034
-0.041303046 1.2360293 -0.27652046
-0.037094451 1.2368797 -0.27742577
-0.033007689 1.2386628 -0.27718154
-0.026856001 1.2390645 -0.27949238
-0.017633429 1.237215 -0.27619293
-0.013315903 1.2376077 -0.27768466
-0.0089167692 1.2385544 -0.27856338
-0.0048730392 1.2397169 -0.27902779
0.13237539 1.2367276 -0.27736533
0.13558422 1.2356641 -0.27620107
-0.87997508 1.2400076 -0.27818534
-0.10043643 1.2413483 -0.27907804
-0.097342625 1.2408199 -0.27721739
-0.092130914 1.2447028 -0.27889901
-0.087314025 1.2420135 -0.27877522
-0.08332137 1.2405856 -0.27728269
-0.075278491 1.2401252 -0.27884308
-0.072641999 1.2428353 -0.27787599
-0.066073619 1.2426766 -0.27823853
-0.061496712 1.2439505 -0.27961835
-0.057885379 1.2436267 -0.27701107
-0.052415524 1.2412171 -0.27635098
-0.047680624 1.2425774 -0.27719927
-0.042942058 1.2437352 -0.27765629
-0.039789338 1.241364 -0.27878946
-0.030191163 1.2401828 -0.27667168
-0.026487201 1.2415671 -0.27672207
-0.021454165 1.2429231 -0.27740735
-0.017294709 1.2432516 -0.27890295
-0.01274256 1.2430403 -0.277996
-0.0081941178 1.2408305 -0.27621904
-0.0031528822 1.2419299 -0.27720881
0.0015343125 1.2430636 -0.27799839
0.0063143475 1.2446836 -0.27825886
0.030660324 1.2449423 -0.27771848
0.071459241 1.2449304 -0.27529591
0.078248881 1.2443726 -0.27902099
0.080592543 1.2447327 -0.27965835
0.13738352 1.2440858 -0.27802747
-0.88812011 1.2495873 -0.27932745
-0.08057408 1.2468385 -0.27973518
-0.074328274 1.2457715 -0.27597889
-0.066631198 1.2480025 -0.27798936
-0.062489316 1.2457619 -0.27810791
-0.057089917 1.2473692 -0.2796219
-0.051891156 1.2478492 -0.27950382
-0.046515968 1.2457529 -0.27802148
-0.036662962 1.2485675 -0.27930585
-0.032839172 1.2476677 -0.27737266
-0.022315374 1.2491214 -0.27812061
-0.017354287 1.246827 -0.27670562
-0.012512117 1.246639 -0.2770513
-0.0065025254 1.2489661 -0.27781063
-0.0039272392 1.248762 -0.27682123
0.0029932619 1.2457974 -0.27545008
0.0075789988 1.2467268 -0.27713263
0.012347221 1.2477096 -0.27736697
0.016928343 1.2489127 -0.27809623
