# .PCD v0.7 - Point Cloud Data file format
VERSION 0.7
FIELDS x y z
SIZE 4 4 4
TYPE F F F
COUNT 1 1 1
WIDTH 1407
HEIGHT 1
VIEWPOINT 0 0 0 1 0 0 0
POINTS 1407
DATA ascii
-0.28736129 1.0034491 0.037310559
-0.28206018 1.0031314 0.038400222
-0.27769592 1.0027502 0.037454069
-0.27246469 1.002858 0.037090741
-0.26769766 1.0033619 0.037459709
-0.26207983 1.0031029 0.037885021
-0.25729707 1.0035793 0.038069796
-0.25282976 1.0032723 0.036952868
-0.24727975 1.0034428 0.037483655
-0.2429243 1.0031829 0.03732625
-0.23768969 1.0037321 0.038308311
-0.23283693 1.0040091 0.036659412
-0.22602665 1.0044117 0.035321735
-0.22238681 1.0046668 0.037583869
-0.21789548 1.0039934 0.03785016
-0.21239294 1.004117 0.037724771
-0.20785625 1.0042925 0.036778651
-0.19184408 1.0039645 0.037580483
-0.18771257 1.0036674 0.037208527
-0.18344632 1.004178 0.037480164
-0.17850094 1.0048388 0.035901856
-0.1665653 1.0041223 0.03765671
-0.16481255 1.0031449 0.037822109
-0.1513678 1.0045837 0.03738036
0.15374158 1.0030785 0.037839163
0.15673016 1.0022608 0.037850954
-0.33712471 1.0065207 0.037536521
-0.33221567 1.0066426 0.036405325
-0.32742471 1.0054734 0.037476387
-0.32116958 1.0054408 0.037942171
-0.31762576 1.0056341 0.037945598
-0.31254882 1.0054588 0.036529444
-0.30397373 1.005456 0.035143219
-0.2973029 1.0056896 0.037247013
-0.2926847 1.0056961 0.037211042
-0.28734329 1.0057417 0.038451478
-0.2843065 1.0050179 0.035642799
-0.27740565 1.0052942 0.035744436
-0.27265555 1.0052156 0.037398197
-0.26638708 1.0061624 0.036967628
-0.26189768 1.0063232 0.037584316
-0.25815797 1.0064431 0.036397737
-0.25247207 1.0062976 0.037070774
-0.24726041 1.0058818 0.037726697
-0.24193355 1.0058994 0.037636667
-0.23707673 1.0066633 0.037752736
-0.23270957 1.0072016 0.037246969
-0.2278854 1.0078086 0.037513487
-0.22305295 1.0076053 0.037323479
-0.2174 1.0069671 0.037620004
-0.21225847 1.0066789 0.037429791
-0.20778239 1.006855 0.037644118
-0.20268641 1.0071449 0.037283819
-0.19733541 1.0077089 0.037565023
-0.19283083 1.007654 0.037838574
-0.18788977 1.007202 0.038287524
-0.18255779 1.0075076 0.037598003
-0.17702436 1.0077362 0.037313696
-0.17209114 1.008391 0.036987059
-0.16702946 1.0078995 0.037676644
-0.16256277 1.0083649 0.037435986
-0.15768811 1.0082937 0.037003625
-0.15235412 1.0078332 0.037815079
-0.1474968 1.0070659 0.037906043
-0.14283961 1.0082983 0.037257146
-0.13816209 1.0087905 0.036998492
-0.13170452 1.0094115 0.037409671
-0.12791419 1.0090437 0.037501752
-0.12152538 1.0096428 0.036422294
-0.11750387 1.0098046 0.036312841
-0.11208471 1.0091614 0.038776562
-0.10716534 1.0092468 0.038088534
-0.10192572 1.0086656 0.037632231
-0.096982457 1.0090513 0.037234221
-0.091149926 1.0098805 0.037095319
-0.075714044 1.0094213 0.035105839
-0.074052669 1.0092143 0.035575926
-0.068083778 1.0098399 0.03834381
-0.041614421 1.0095379 0.03704913
0.15348321 1.0072625 0.035721101
0.15671383 1.008495 0.037923329
-0.23084468 1.0104162 0.036708929
-0.22596936 1.0107646 0.03786087
-0.22338757 1.0104605 0.037533239
-0.20018749 1.0102489 0.038808715
-0.19807859 1.0101056 0.036082588
-0.19346035 1.0115972 0.036455072
-0.18787372 1.0103014 0.035570607
-0.17677715 1.0106009 0.036846846
-0.17217289 1.0111134 0.038208209
-0.1679801 1.0105906 0.039394557
-0.16184132 1.0109395 0.037590872
-0.15772827 1.0107375 0.038200591
-0.15272337 1.0125415 0.037666336
-0.14791597 1.0118833 0.037713658
-0.14241788 1.0116462 0.037212659
-0.13752978 1.012435 0.037691105
-0.13285999 1.0122623 0.037548218
-0.12707476 1.0127323 0.037260767
-0.12217221 1.0121537 0.037579007
-0.11765037 1.0119059 0.037806205
-0.11260502 1.0118871 0.037137277
-0.10711978 1.0117165 0.037542228
-0.10239278 1.0122031 0.038029883
-0.09755826 1.012364 0.037839327
-0.092909187 1.012826 0.037598226
-0.087494321 1.0126464 0.037474342
-0.082644336 1.0130737 0.037960079
-0.077833585 1.0121825 0.037111711
-0.072283596 1.0124496 0.037741892
-0.067296475 1.0131748 0.037388317
-0.06214942 1.0136557 0.038195703
-0.057424922 1.0135106 0.037607621
-0.052459978 1.0138016 0.037779626
-0.047568802 1.0137055 0.038049169
-0.042551678 1.0128074 0.037759349
-0.037771441 1.0133396 0.037854746
-0.032865144 1.013757 0.037205312
-0.02756902 1.0140254 0.037950139
-0.022133879 1.013937 0.0372402
-0.017977383 1.014128 0.037487406
-0.012198618 1.0135527 0.037718244
-0.0073241908 1.0129596 0.036993016
-0.0019543022 1.0135539 0.037772406
0.0031981079 1.0143243 0.037154078
0.0083032753 1.0136878 0.038598593
0.011985145 1.0134892 0.038073745
0.017205026 1.0142546 0.037882011
0.023507072 1.0133662 0.037230492
0.027313907 1.013955 0.037152126
0.032664359 1.0141221 0.038924463
0.037577685 1.0138996 0.036192581
0.042978842 1.0139414 0.037398294
0.046056338 1.0145421 0.03705126
0.086303443 1.014951 0.036103599
0.11040848 1.0138229 0.035101119
0.15467757 1.0116885 0.037890941
0.15710515 1.012902 0.037114643
-0.15386482 1.0152929 0.039176974
-0.1411342 1.0152018 0.03598468
-0.13707978 1.0153905 0.039601881
-0.13232242 1.0150317 0.035592526
-0.1217875 1.0155468 0.039644115
-0.1188976 1.0161479 0.035903815
-0.11290196 1.0158528 0.03795667
-0.10914184 1.0162889 0.039733354
-0.097637877 1.015574 0.037575349
-0.092401929 1.0162187 0.037199792
-0.088175751 1.0159975 0.03686462
-0.082432359 1.0155231 0.036969479
-0.077456079 1.0165931 0.036971975
-0.072433591 1.0168198 0.037149187
-0.067507595 1.0157379 0.037108887
-0.061508324 1.0154815 0.036791686
-0.058317713 1.0151973 0.038069077
-0.051953752 1.015501 0.037471723
-0.047921948 1.0154827 0.036464851
-0.04203292 1.0161607 0.037235457
-0.037271027 1.016518 0.036526263
-0.032215603 1.0163941 0.03789629
-0.02737426 1.0164768 0.037499998
-0.022615273 1.0163834 0.037896924
-0.017531931 1.016583 0.03752717
-0.012792547 1.016943 0.037234753
-0.0082320888 1.0179667 0.037323568
-0.0029101211 1.0180253 0.038061872
0.0036189333 1.0174229 0.037704218
0.0081721293 1.0179604 0.037329432
0.012786634 1.0175892 0.03799703
0.017528677 1.0180132 0.037565641
0.022504643 1.0158767 0.036965538
0.027963981 1.0175917 0.039035853
0.032476038 1.0172889 0.037059397
0.036950164 1.0173174 0.037518132
0.042419549 1.0169207 0.037798714
0.047868397 1.0171487 0.037320491
0.052489553 1.0175557 0.038326841
0.056625456 1.0183479 0.036768861
0.062559247 1.018252 0.037958521
0.067326531 1.0175595 0.037834991
0.073571086 1.0184268 0.039303664
0.077728704 1.0187359 0.035816491
0.082532391 1.0185841 0.037528042
0.087276727 1.0181074 0.03862856
0.092449129 1.0180044 0.036786519
0.097584635 1.0181172 0.037582345
0.10268331 1.0181433 0.037915267
0.10759514 1.0176705 0.037458103
0.11161667 1.0169808 0.038048994
0.11749401 1.0177149 0.037323859
0.12961482 1.0199616 0.036626603
0.13138379 1.0197411 0.037127141
0.15380394 1.0182352 0.036893424
0.1562763 1.0172197 0.037569664
-0.011528014 1.0203273 0.037579883
-0.0077596726 1.0211537 0.037721746
-0.0023667892 1.0208927 0.038030714
0.0016657565 1.0211554 0.037104916
0.0071867253 1.020388 0.038222749
0.010739813 1.0209578 0.035146289
0.017839454 1.0213525 0.038102582
0.022288989 1.0223097 0.036875576
0.027094958 1.022128 0.037283208
0.033205666 1.0217304 0.037988663
0.037892472 1.0220561 0.037577927
0.042614251 1.0222586 0.03759234
0.047537133 1.0221295 0.037460126
0.052474443 1.0214276 0.037926134
0.057131853 1.0229514 0.037819549
0.061285697 1.0225868 0.037645638
0.067329645 1.0218334 0.037675209
0.071867444 1.0217855 0.037047666
0.077010743 1.0205666 0.036984928
0.082736365 1.0211468 0.039624237
0.086811297 1.0213282 0.03600524
0.092062771 1.0206736 0.03749115
0.096439004 1.020128 0.038729411
0.10637846 1.0201151 0.038521335
0.11253596 1.0222844 0.037261624
0.11825205 1.0232449 0.037539363
0.12274051 1.0227981 0.036240689
0.12752643 1.0226241 0.037927952
0.13204157 1.0231848 0.037191153
0.13795444 1.0235667 0.036499254
0.14315793 1.0236478 0.037605174
0.14717352 1.0229775 0.036699601
0.15224405 1.0221521 0.037675429
0.1561774 1.0222151 0.038338624
0.022075322 1.0253644 0.037437785
0.036369573 1.0262955 0.039274175
0.040166967 1.0250914 0.039748359
0.050226908 1.0258495 0.036171451
0.057949863 1.0253824 0.037994951
0.061388902 1.0262583 0.036835581
0.1177242 1.0258197 0.036708735
0.12244816 1.0258142 0.03850494
0.13022253 1.0263569 0.036580537
0.13757655 1.0264273 0.037777968
0.14202055 1.0259675 0.037780825
0.14795081 1.0259312 0.039015997
0.15246065 1.0258425 0.036868405
-0.35502601 0.76988387 0.04160377
-0.3524667 0.76956481 0.042327933
-0.35653874 0.77335352 0.042665936
-0.35263926 0.77246833 0.042223893
-0.34824395 0.77326161 0.043025613
-0.34273273 0.77307999 0.041881107
-0.33774561 0.77452201 0.042472731
-0.36026672 0.77957499 0.044582251
-0.35818604 0.77748203 0.042163413
-0.350853 0.77642167 0.04018848
-0.34736034 0.77620536 0.041142523
-0.34231263 0.77669096 0.043104142
-0.33761486 0.77751672 0.042842399
-0.33456802 0.77615386 0.040737916
-0.36052424 0.78344321 0.042215809
-0.35933155 0.7825352 0.042176589
-0.33685195 0.78272146 0.042524349
-0.33478719 0.78368407 0.040572096
-0.36043096 0.78621006 0.043101929
-0.35954714 0.78769755 0.040624067
-0.33695769 0.78719413 0.04286195
-0.3613494 0.79385275 0.042659335
-0.35978666 0.79039979 0.042661272
-0.34027213 0.7944864 0.044914007
-0.33817354 0.79261035 0.042781185
0.17690629 0.79435343 0.040386982
-0.3619599 0.79737902 0.042901006
-0.3402361 0.79641229 0.041718565
-0.33832616 0.79733312 0.042349078
0.16880685 0.79858327 0.040631585
0.17292131 0.79864275 0.042246684
0.17785914 0.79812551 0.043056965
0.18288893 0.79837668 0.041927654
0.18528542 0.79883868 0.043127231
-0.36183742 0.80201566 0.043204062
-0.33803836 0.80248398 0.043009683
0.1692993 0.80174184 0.043307282
0.17169945 0.80202788 0.042635459
0.17739147 0.80046892 0.041402534
0.18416777 0.80150783 0.041382052
0.1870821 0.80200338 0.042318445
-0.36269093 0.808092 0.042304311
-0.35956052 0.80758929 0.044328105
-0.34063262 0.80811036 0.042416975
-0.33890501 0.80718869 0.041350149
0.17249073 0.80752623 0.042514123
-0.36165711 0.81179333 0.042854037
-0.34037799 0.8121525 0.042594261
-0.33863136 0.8130818 0.043016199
0.17328212 0.8122716 0.042405952
0.17558083 0.81315082 0.043171823
-0.36195049 0.81595099 0.044156794
-0.34050661 0.81815088 0.043238427
-0.33873257 0.81770509 0.04213766
0.16939609 0.81883878 0.040865384
0.17259853 0.81780392 0.042142905
0.1757839 0.81738997 0.042159006
-0.34023404 0.82253408 0.043389283
-0.33835205 0.82242906 0.043660425
0.16894627 0.82276618 0.043123081
0.17176855 0.82202798 0.043578338
0.17549154 0.82068807 0.044645406
-0.34094867 0.82939339 0.043743718
-0.33920252 0.82735109 0.041309297
0.16907744 0.82733142 0.043447059
0.17093441 0.82829338 0.041424561
-0.3409366 0.83284837 0.042165693
-0.33924314 0.83278435 0.042011615
0.16882491 0.83321398 0.04240346
0.17072035 0.83277297 0.042198706
-0.34171724 0.83738852 0.042415842
-0.33906865 0.83698726 0.042955011
0.16919442 0.837439 0.042683151
0.1710584 0.83796501 0.042390503
-0.34141785 0.84182948 0.04200843
-0.33952853 0.84148234 0.044556163
0.16889767 0.84017324 0.041534603
0.17162928 0.84307575 0.042204507
-0.34148619 0.8477118 0.04306538
-0.33960503 0.84766722 0.04221857
0.17205155 0.84778172 0.042398516
-0.34224677 0.8523072 0.041166905
0.16877952 0.85293084 0.043565731
0.17134726 0.85242307 0.042372819
-0.34525785 0.85896289 0.042807154
-0.34373829 0.85750252 0.041976694
0.16902682 0.85744536 0.041900724
0.17173348 0.85760307 0.042458743
-0.34603727 0.86079675 0.044358611
-0.34304696 0.86250776 0.042814359
0.16907859 0.86231297 0.042565614
0.17107287 0.86242479 0.042084876
-0.34503692 0.86723691 0.041283019
-0.34204546 0.86709785 0.043533511
0.16431567 0.86957347 0.041685425
0.1678077 0.86726677 0.042395439
0.17173412 0.86779082 0.042311538
-0.34273857 0.87325162 0.042464528
-0.33971363 0.87000233 0.043908674
0.16678841 0.87240344 0.042863782
0.17223656 0.87169135 0.04238626
-0.3454735 0.87820929 0.041647945
-0.34343961 0.87840402 0.041685212
0.16770644 0.87737972 0.04301415
0.1702365 0.87640405 0.041349653
-0.34561437 0.88188255 0.041773736
-0.34333864 0.88268268 0.042184234
0.16908956 0.8821578 0.042255551
-0.34605366 0.88803506 0.041550569
-0.34358567 0.88789916 0.042253878
0.16421573 0.88945806 0.044022005
0.16813223 0.88776016 0.04255338
0.17008215 0.8875646 0.040780175
-0.34635821 0.89279896 0.042423364
-0.3437615 0.89235103 0.041880913
0.1641265 0.8925612 0.04244592
0.16741355 0.89251643 0.042556103
0.17136733 0.89148879 0.044361077
-0.3458581 0.89661008 0.041577511
-0.34353727 0.8979513 0.042780913
0.1639363 0.89766723 0.043206148
0.1657227 0.89782143 0.042124089
0.1701245 0.89616227 0.043582112
-0.34321502 0.90250009 0.042418707
0.16329144 0.90171468 0.04277182
0.1657995 0.90294456 0.043289628
-0.34524804 0.90903091 0.041829951
-0.34291494 0.90702289 0.043230668
0.15877099 0.90889239 0.041752156
0.16242486 0.90739137 0.042316847
0.16577303 0.90720046 0.042202361
-0.34571943 0.91333866 0.044380136
-0.34370247 0.91285789 0.042514712
0.15880473 0.91318059 0.042928055
0.16202198 0.91248858 0.042628389
0.16559574 0.91291308 0.041762345
-0.34639341 0.91832966 0.041921835
-0.34443781 0.91811609 0.040240418
0.15956132 0.91765624 0.043198332
0.16148765 0.91816509 0.041434195
0.16622475 0.91678351 0.042060949
-0.34574461 0.92288375 0.043694705
-0.34395355 0.92231005 0.041964285
0.15908615 0.9214136 0.0419905
0.16127224 0.92270392 0.043356869
-0.34615055 0.92904192 0.041608669
-0.34277356 0.9272927 0.043525606
0.15906616 0.9276647 0.041591436
0.16194405 0.92746812 0.042533405
0.16611288 0.92805958 0.044588391
-0.34662485 0.93253636 0.043751445
-0.34370941 0.93179941 0.041953217
0.15880598 0.93198824 0.042771816
0.16141655 0.93160456 0.043996185
-0.34736633 0.9381882 0.041680437
-0.34450409 0.93765962 0.041868627
0.15948109 0.93559468 0.044009652
0.16131443 0.93713367 0.042598594
-0.34711581 0.94230938 0.043161679
0.16171487 0.94228536 0.042822644
-0.34839875 0.94755507 0.041715838
0.15905355 0.94578558 0.042572141
0.16178055 0.94681919 0.042907033
0.16691947 0.94961774 0.043273661
-0.3502441 0.95090491 0.04488904
-0.34812033 0.95199555 0.043729562
0.15944766 0.95375085 0.042352498
0.16257021 0.9518531 0.04293384
-0.35029995 0.95632756 0.04215065
-0.34890291 0.95727682 0.041504707
0.15842345 0.95747274 0.042236142
0.16279748 0.95702666 0.042666063
-0.34789592 0.96192157 0.043035079
0.15467988 0.96147138 0.043958958
0.15808764 0.9625228 0.041833896
0.16286498 0.96252239 0.042148579
0.16672464 0.96385646 0.041126985
-0.35059971 0.9678396 0.04267741
-0.34776714 0.96772265 0.042036168
0.15786539 0.96728271 0.042243
0.16238806 0.96706426 0.042000823
-0.34719247 0.97249734 0.0422826
0.15779391 0.97196627 0.043351535
0.16066247 0.97212905 0.041788965
-0.35079527 0.97738695 0.042130049
-0.34846732 0.97673053 0.04268387
0.15389352 0.97774202 0.041858446
0.15731505 0.97819901 0.042276818
0.16028106 0.97695172 0.042674016
-0.35134855 0.98341346 0.042164896
-0.34962752 0.98084033 0.042930607
0.15363899 0.98271269 0.04169048
0.15706941 0.98252368 0.042849135
-0.35526222 0.98980993 0.040953465
-0.35223779 0.9876895 0.042967018
-0.34962538 0.98637539 0.040202379
0.15424185 0.98779035 0.040604535
0.1572056 0.98733938 0.042087574
-0.35259733 0.99287909 0.042010374
-0.34988967 0.99248862 0.043495793
0.15739802 0.99213827 0.042574655
0.16026323 0.99340808 0.042009454
-0.35209209 0.99752891 0.042292193
-0.34822431 0.99879289 0.041655224
-0.34234247 0.99933285 0.040871225
-0.33724785 0.99913144 0.042185694
-0.33051789 0.99908912 0.042264383
-0.3255682 0.9991588 0.043832067
-0.29692894 0.99904287 0.042789754
-0.29438725 0.99984074 0.041146412
-0.28912246 0.99927688 0.042141251
0.15439472 0.99768329 0.042143576
0.15739556 0.99724007 0.042466037
0.16011699 0.99718893 0.043602996
-0.35210153 1.0018013 0.043349601
-0.34752464 1.0016515 0.042391337
-0.34276146 1.0024806 0.042794719
-0.33738744 1.0026401 0.042963065
-0.33314028 1.0030258 0.042068362
-0.32738912 1.0030029 0.042408254
-0.322236 1.0027244 0.042947229
-0.31777602 1.003121 0.043068163
-0.3129431 1.0033199 0.042204142
-0.30759892 1.0034083 0.042544559
-0.30267587 1.0027183 0.042371847
-0.29701975 1.0023983 0.043174762
-0.29237145 1.0033262 0.042462561
-0.28715661 1.003275 0.042574048
-0.28183895 1.0035864 0.04258848
-0.27768555 1.0032929 0.042423937
-0.27254608 1.0036894 0.041903764
-0.26793742 1.0028297 0.042051684
-0.26234615 1.0032096 0.043017812
-0.25724038 1.0033519 0.042562313
-0.25263679 1.0030479 0.042500928
-0.24770701 1.0037701 0.042342767
-0.24348596 1.0032105 0.042445194
-0.23749372 1.0033414 0.042251334
-0.23283562 1.0040749 0.042010486
-0.22160621 1.0043924 0.041977499
-0.21660841 1.0044023 0.041527372
-0.2107607 1.0041685 0.042219441
-0.20916665 1.0036545 0.040677577
-0.19179685 1.0049471 0.041140374
-0.18640153 1.0047894 0.042038016
-0.1842539 1.0039635 0.041594248
-0.17693292 1.0045952 0.044170015
-0.1733844 1.0041745 0.043170765
-0.16848788 1.0048063 0.041617129
0.15393808 1.0026062 0.042857364
0.15745194 1.0021483 0.042869598
0.16014734 1.0011083 0.044044219
-0.33138877 1.0057724 0.040817183
-0.32087779 1.0065893 0.043801963
-0.31887764 1.0056851 0.04173664
-0.31243554 1.0053437 0.041896343
-0.30755308 1.0053489 0.043485645
-0.30433056 1.0058537 0.041146625
-0.29259333 1.0055193 0.042564359
-0.28710455 1.0053686 0.043587133
-0.2846798 1.00535 0.041626457
-0.2764366 1.0061021 0.04192194
-0.27201471 1.005281 0.041052382
-0.2663936 1.0073748 0.043099746
-0.26191667 1.0064398 0.042736631
-0.25812188 1.0061311 0.042063244
-0.25167736 1.0060594 0.042453121
-0.24743325 1.0063387 0.042339399
-0.24213336 1.0068423 0.042785373
-0.23775202 1.0071136 0.042312339
-0.23234552 1.007392 0.042474683
-0.22760966 1.0077224 0.042282384
-0.22258782 1.0077089 0.042522173
-0.21763426 1.007521 0.042510178
-0.21214899 1.0070701 0.042572498
-0.20756556 1.0066204 0.042474959
-0.20254739 1.007676 0.042251479
-0.19738922 1.0082005 0.042504773
-0.19211581 1.0079831 0.04256814
-0.18706566 1.0068983 0.042714354
-0.18261671 1.0072873 0.042299371
-0.17757887 1.0069456 0.042733893
-0.17212404 1.0079629 0.042501401
-0.16728593 1.0081153 0.042360254
-0.16227254 1.0092446 0.042378146
-0.15781204 1.0088227 0.042142954
-0.15268134 1.007996 0.041929979
-0.14808702 1.0086422 0.041266132
-0.14270714 1.0090228 0.042371258
-0.13774171 1.0091256 0.042081963
-0.13264182 1.0089338 0.042754751
-0.127269 1.008948 0.042472661
-0.12240921 1.0095714 0.042789936
-0.11718357 1.0091736 0.042521037
-0.11228766 1.0091215 0.042691741
-0.10882606 1.0094749 0.041027471
-0.10263349 1.0091553 0.040972453
-0.098021634 1.0090789 0.04166982
-0.092053138 1.0092825 0.041657731
-0.087377124 1.0092583 0.042191766
-0.083359338 1.0094119 0.042952001
-0.0775299 1.0096546 0.042570245
-0.071915545 1.0089546 0.044158835
-0.069289133 1.0099978 0.041995116
-0.061835658 1.0090685 0.044104084
-0.058517858 1.009336 0.043586172
-0.016923113 1.0097733 0.044503391
0.018476833 1.0097207 0.043337863
0.020173499 1.0095091 0.043817937
0.15379359 1.0090454 0.042559035
0.15778778 1.0072397 0.042659149
-0.22622585 1.0101775 0.042773705
-0.22457157 1.0102301 0.041272692
-0.21396311 1.0103289 0.041593865
-0.20237508 1.0103657 0.042053267
-0.19845286 1.0105331 0.043680165
-0.1923182 1.010585 0.042072818
-0.17513204 1.0100383 0.040219899
-0.16659732 1.0105319 0.042447221
-0.16287975 1.0110276 0.041726165
-0.15721624 1.0114126 0.042431798
-0.1524127 1.0113275 0.042928409
-0.1478209 1.0120414 0.042785563
-0.14238447 1.0123163 0.042137612
-0.13812022 1.0117865 0.04260793
-0.13237318 1.011443 0.042797025
-0.12727427 1.0114914 0.042523503
-0.12233346 1.0120991 0.04251717
-0.1175317 1.0123525 0.042504001
-0.11257228 1.0124915 0.04255436
-0.10738086 1.0122138 0.042672887
-0.10263798 1.0123638 0.042815734
-0.09745191 1.0128286 0.042151373
-0.092383876 1.0126175 0.042749491
-0.087603159 1.0121952 0.042748652
-0.082899556 1.0124522 0.042842984
-0.077554412 1.0125214 0.042212412
-0.073206253 1.0121573 0.042857897
-0.067302577 1.0127933 0.043004118
-0.062771261 1.0129904 0.04280185
-0.057569265 1.0131912 0.042330034
-0.052942917 1.0138056 0.042561468
-0.047470782 1.0138884 0.042440321
-0.042982846 1.0136564 0.041561302
-0.037447348 1.0139642 0.041770626
-0.032564711 1.013587 0.042217225
-0.0276528 1.0134115 0.042814691
-0.022408007 1.0130475 0.042538803
-0.01820755 1.0136721 0.041663703
-0.012699309 1.0135012 0.042714082
-0.0081212781 1.0133861 0.042099517
-0.0026886647 1.0143055 0.042747702
0.001824777 1.0145946 0.040829979
0.0098109394 1.0142509 0.041610017
0.013189378 1.0136516 0.042969186
0.017026085 1.012781 0.04280369
0.021632142 1.0120409 0.042951118
0.027038788 1.0137905 0.042631503
0.036519736 1.0136415 0.040015344
0.064941742 1.0149533 0.042580131
0.066666998 1.0147381 0.043068293
0.15449868 1.0126525 0.041416902
0.1572357 1.0120655 0.042570204
0.16014521 1.0110505 0.041244194
-0.15619454 1.0154842 0.042426046
-0.1545752 1.0152823 0.042884238
-0.14234351 1.0151958 0.043491893
-0.13742951 1.0155828 0.041359134
-0.11795249 1.0154374 0.042158529
-0.11453087 1.0159938 0.042762157
-0.10710594 1.0157127 0.041827291
-0.10176569 1.0157143 0.041907508
-0.097708821 1.0159562 0.043031737
-0.09412767 1.0171614 0.04315348
-0.082063019 1.0159637 0.04296067
-0.077685952 1.0166031 0.041634422
-0.072548427 1.0163634 0.041834272
-0.067610435 1.0155512 0.042153914
-0.062569134 1.0156924 0.042948395
-0.057557002 1.0162224 0.043085087
-0.052656494 1.0158021 0.042322833
-0.047321323 1.0156966 0.04320642
-0.042335216 1.0161457 0.043202531
-0.037668273 1.0158787 0.042848855
-0.032596793 1.0168217 0.04271102
-0.027264008 1.0164697 0.043050814
-0.02255225 1.0166953 0.042481892
-0.017695038 1.017745 0.042226158
-0.012030087 1.0177722 0.042901758
-0.0076168585 1.0181152 0.042422064
-0.0022066196 1.0175745 0.042296033
0.0030654736 1.0179822 0.042644568
0.0078721866 1.0175905 0.042771872
0.012023367 1.0179417 0.04205652
0.016972922 1.0177963 0.042421684
0.022448191 1.0179218 0.041404452
0.027349936 1.0183282 0.042623714
0.032695044 1.0178776 0.042269967
0.037317853 1.0176071 0.043177396
0.042378943 1.0180906 0.041855291
0.047276169 1.0177034 0.041877162
0.052344475 1.0181811 0.042629112
0.057683729 1.0181553 0.042337444
0.062809557 1.0173528 0.043657549
0.068022273 1.0162355 0.042992473
0.072248727 1.0180136 0.042460419
0.077741325 1.0186164 0.042091578
0.08277043 1.0183817 0.043217495
0.087840192 1.0181487 0.042928737
0.093002699 1.0180086 0.041690808
0.098123193 1.0177907 0.042845473
0.10269158 1.018072 0.042682298
0.10740906 1.0181146 0.0418563
0.11248756 1.0191283 0.04256402
0.11684226 1.0185653 0.042086173
0.12287026 1.0185857 0.042273715
0.12750278 1.0183241 0.043036096
0.13287638 1.018918 0.042362973
0.13715181 1.0198381 0.044717211
0.15451141 1.0153992 0.042522267
0.15728796 1.0176318 0.042477116
-0.015946271 1.0206606 0.041303456
-0.011646383 1.0216835 0.0424955
-0.0075469404 1.0217879 0.042860791
-0.0027307654 1.0214311 0.042318147
0.0027966495 1.0206791 0.042317454
0.0080649769 1.0203415 0.043883175
0.013230902 1.021765 0.043201074
0.017402237 1.021872 0.042176612
0.022657711 1.0218146 0.042578086
0.027849548 1.02124 0.042850953
0.032486524 1.0224704 0.042549077
0.037130319 1.0225617 0.041574396
0.042456608 1.02221 0.042156648
0.047392301 1.0226455 0.0426399
0.052240372 1.0228711 0.042167008
0.057403717 1.0223379 0.042768795
0.061674826 1.0219812 0.042054616
0.067423493 1.0222683 0.041580938
0.071612477 1.0214601 0.042540926
0.07860931 1.0216656 0.043775152
0.083363473 1.0203568 0.04455629
0.087762423 1.0207255 0.041208148
0.091019243 1.0201141 0.041967887
0.10418685 1.0206052 0.04205852
0.10826953 1.0212429 0.042408343
0.11289176 1.0217155 0.042264514
0.11786541 1.0220728 0.042163618
0.12264744 1.0228876 0.042122409
0.12780416 1.0226179 0.043343954
0.13187611 1.0240554 0.040713035
0.13846079 1.0237813 0.043007024
0.14247999 1.0235026 0.041957058
0.14784667 1.0233225 0.041793667
0.1531366 1.0233985 0.042749405
0.15696532 1.0222298 0.042616751
0.16054089 1.0211129 0.044005916
0.017858341 1.0262197 0.04310108
0.020635694 1.0253649 0.042503722
0.033295814 1.0258517 0.042351514
0.037249237 1.0259866 0.041720051
0.052143469 1.0254968 0.044104263
0.055787049 1.0250871 0.040965632
0.061197348 1.0264386 0.04142965
0.12542316 1.027777 0.041184917
0.13366513 1.0255827 0.042597897
0.13794574 1.0265369 0.04232363
0.14220348 1.0265714 0.041315999
0.14792374 1.0267204 0.04330714
0.15162008 1.0265808 0.042122107
0.15624142 1.0257785 0.042055734
-0.35688996 0.77256644 0.047813565
-0.35273999 0.77197009 0.047218941
-0.34787586 0.77321136 0.047748655
-0.34354287 0.77361411 0.046680596
-0.36035326 0.77943832 0.049756762
-0.3591353 0.77705276 0.04758266
-0.34579849 0.77571487 0.048520263
-0.34181881 0.77690887 0.046953429
-0.33843538 0.7778365 0.047850136
-0.36042821 0.78331602 0.046803057
-0.35947001 0.78233027 0.047942001
-0.34055504 0.78315604 0.049084682
-0.33789164 0.78259367 0.046657808
-0.3612068 0.78794307 0.047360361
-0.33748659 0.78740364 0.047721568
-0.36133486 0.79287177 0.04756178
-0.35994935 0.79134709 0.048660651
-0.33781475 0.79263812 0.047796581
-0.36191407 0.79763925 0.046666969
-0.33704442 0.79761559 0.048227318
-0.33481556 0.79846883 0.048045568
0.1692597 0.79942656 0.045454822
0.17273138 0.79848021 0.046032637
0.17721078 0.79874653 0.047530241
0.18070467 0.79854721 0.047629617
-0.36104891 0.80253577 0.047873776
-0.3595823 0.80337137 0.047641441
-0.33756855 0.80218869 0.047171362
0.16914462 0.80072474 0.046433527
0.17246473 0.80211318 0.04762996
0.17703147 0.80162489 0.047358215
0.18315719 0.80281377 0.047155667
-0.3620913 0.80700016 0.04799331
-0.35958308 0.80752146 0.046923719
-0.33877271 0.80711681 0.046890039
0.17318289 0.80645019 0.047641952
0.17591833 0.80908263 0.04812419
-0.36286607 0.81230897 0.047376435
-0.34149286 0.81372565 0.045939028
-0.3387295 0.81254202 0.048634555
0.16996445 0.81431651 0.049479224
0.17334451 0.8126536 0.047907364
0.1768671 0.81279254 0.047919989
-0.36195928 0.81721056 0.046816044
-0.34069288 0.81902587 0.047966264
-0.33886224 0.81706125 0.046606109
0.17334981 0.81759202 0.047085233
0.17651449 0.815606 0.045018695
-0.34127209 0.82299566 0.048364408
-0.33929768 0.82276601 0.047599979
0.17241479 0.82262754 0.047392301
0.1753746 0.8220073 0.045639962
-0.34073049 0.8269102 0.047832794
-0.33941013 0.82740545 0.04701972
0.16780302 0.8279835 0.047461357
0.17140721 0.827191 0.047926169
-0.34094539 0.8321681 0.046978045
-0.33904445 0.8313964 0.048736736
0.16811268 0.83180344 0.048135102
0.17125383 0.8322953 0.048186567
-0.34114629 0.83703184 0.047062658
-0.33963755 0.83741426 0.046730679
0.16887791 0.8368786 0.047824726
0.17113489 0.83785415 0.04654032
-0.34058279 0.84250271 0.047642432
-0.3390131 0.84214354 0.048611391
0.16916516 0.84284532 0.048392188
0.1707579 0.84230471 0.047184203
-0.34104884 0.84769773 0.047992479
-0.33938164 0.84769863 0.047570568
0.16898833 0.84808958 0.047804765
0.17088757 0.84780508 0.047507208
-0.34237793 0.85228467 0.046776906
0.16893396 0.85161555 0.048568174
0.17136292 0.85240108 0.046126366
-0.34549251 0.85794252 0.046618834
-0.3438386 0.85731626 0.047040723
0.16934919 0.85773748 0.048293758
0.17098516 0.85653579 0.046486665
-0.3455891 0.86339539 0.048065461
-0.34391797 0.8625617 0.047436118
0.16899997 0.86274511 0.046473954
0.17143446 0.86265266 0.046920117
-0.34538817 0.86764663 0.047288194
-0.34325877 0.86832935 0.046805069
0.16791189 0.86787909 0.047416348
0.17107828 0.86657566 0.048279919
-0.34307763 0.87215805 0.047702216
0.16494246 0.8710807 0.047097966
0.16759005 0.87251174 0.047715683
0.17053232 0.8721571 0.046089992
-0.34271336 0.87731344 0.047735762
0.16802022 0.87801647 0.047754597
0.17015098 0.876459 0.049333148
-0.34223524 0.88155097 0.046241838
-0.33933267 0.88062435 0.048954993
0.16835156 0.88263249 0.047005866
0.17051454 0.88201421 0.049861073
-0.34508961 0.88891274 0.046732925
-0.34241894 0.88781059 0.047968134
0.16870885 0.88760519 0.04781872
0.17080069 0.88863707 0.045885231
-0.34292784 0.89151996 0.047410242
0.16335607 0.89303386 0.046511024
0.16767868 0.89310688 0.047696028
0.17068684 0.8917703 0.047512509
-0.34271428 0.89743823 0.048114777
0.16323084 0.89719093 0.04774449
0.16714044 0.89682817 0.047753077
-0.34608325 0.90346259 0.049348976
-0.34344232 0.90233296 0.046654411
0.16381106 0.9027971 0.047450986
0.1676462 0.90114158 0.048552826
-0.34588623 0.90843093 0.04755716
-0.34342709 0.90774018 0.04673446
0.1599396 0.90881193 0.045677718
0.16297069 0.90764666 0.047754928
0.16601621 0.90555114 0.049411707
-0.34601834 0.91131908 0.048330925
-0.34414339 0.91247362 0.048191905
0.15930462 0.91288656 0.048645057
0.16222045 0.91234165 0.04838936
-0.34616944 0.91715187 0.046663906
-0.34348461 0.91730833 0.047340132
0.15874138 0.91752541 0.046769213
0.1612334 0.91794819 0.04805211
-0.34624007 0.92198741 0.048468117
-0.34464532 0.92147326 0.047615092
0.16216639 0.92203885 0.047643371
-0.34655568 0.92738008 0.046613336
-0.34410822 0.92554057 0.04923258
0.15917012 0.92670721 0.046192184
0.16279854 0.92753184 0.04771848
0.16598836 0.92946434 0.04564742
-0.34695828 0.93235332 0.047604863
-0.34405437 0.93208981 0.046973825
0.15899967 0.93311405 0.04585848
0.16216844 0.93287331 0.046876676
0.16586384 0.93086904 0.046706449
-0.35056433 0.93643427 0.048886068
-0.34764567 0.93749613 0.047440056
0.15935619 0.93700361 0.045071844
0.1621851 0.93730706 0.047838651
0.16586626 0.93897873 0.049108963
-0.34779939 0.94213653 0.047837347
0.16293192 0.94251937 0.047457345
0.16617246 0.9430443 0.047112733
-0.34810144 0.94768637 0.047058571
0.16259357 0.9475351 0.047410019
0.16680974 0.9474799 0.047361385
-0.34758025 0.95208967 0.048433866
0.16234596 0.9531998 0.047541097
0.16661517 0.95113939 0.048608337
-0.34746495 0.95722067 0.047532454
0.15860012 0.95769811 0.046467453
0.16296121 0.95754975 0.047265396
-0.34720239 0.96267688 0.047684047
0.15890642 0.96284992 0.047380518
0.16279662 0.96216714 0.048098929
0.16604739 0.9642036 0.045128703
-0.34655622 0.96647692 0.047404472
-0.34457314 0.96786463 0.048871934
0.15907277 0.96737689 0.047095936
0.16157149 0.96733183 0.046949793
-0.34637356 0.97134888 0.046560697
0.15841863 0.97341025 0.047019705
0.16075635 0.97195351 0.047041982
-0.35062003 0.97842664 0.048028976
-0.3489033 0.97665888 0.045756608
0.15760796 0.97734767 0.047392931
0.16052879 0.97600883 0.048337642
-0.35064006 0.98395222 0.045313697
-0.34955749 0.98217726 0.049064022
0.15831 0.98261791 0.047382493
0.1613743 0.98223591 0.04824955
-0.35238498 0.98733318 0.047633734
-0.34924805 0.98722506 0.047681417
0.15815648 0.98718423 0.047659252
-0.35216513 0.99232495 0.047083121
-0.3492294 0.99194056 0.048204087
0.15846427 0.99309522 0.046924058
0.16066921 0.99309945 0.047236241
-0.35117644 0.99762118 0.047117811
-0.34838575 0.99846852 0.045298994
-0.3333644 0.99846452 0.047549855
-0.32758391 0.99726731 0.047259022
-0.32383868 0.99894875 0.047850382
-0.31878358 0.99996489 0.049810201
0.15857053 0.99804652 0.04723255
0.16114277 0.99643523 0.048715509
-0.34764466 1.0022774 0.046622049
-0.34281912 1.0027559 0.048495673
-0.33715725 1.0032022 0.047611684
-0.33256793 1.0027523 0.047336087
-0.32795507 1.0019505 0.047159676
-0.32246298 1.0018137 0.047727324
-0.31753772 1.0026459 0.047612771
-0.31241953 1.0036805 0.046561159
-0.30697799 1.0036082 0.047661446
-0.3023251 1.0025277 0.0479692
-0.29748765 1.0021255 0.047734566
-0.29257819 1.0031019 0.046849858
-0.28697294 1.0037175 0.048165243
-0.28258976 1.0035553 0.046920076
-0.27722654 1.0028791 0.048326362
-0.27252021 1.0027461 0.047273561
-0.26748925 1.0028334 0.047208775
-0.26300645 1.0034763 0.046936627
-0.25695181 1.0041561 0.047986493
-0.2525284 1.0039895 0.047114491
-0.24788541 1.0033588 0.047060464
-0.24232674 1.0038109 0.047233801
-0.23851293 1.0038408 0.047150865
-0.2324748 1.0041679 0.048202228
-0.22655855 1.0043871 0.045390248
-0.22255559 1.0048509 0.046539485
-0.21283746 1.0043979 0.049310438
-0.20838134 1.0042896 0.047937293
-0.20369042 1.004328 0.048331261
-0.19213879 1.0048136 0.0495544
-0.1858259 1.0031796 0.04768372
-0.18277802 1.0041924 0.04914375
-0.1757938 1.0047807 0.047483698
-0.17345077 1.0048608 0.049775444
0.15423556 1.0028193 0.047125049
0.15821309 1.0030721 0.047198735
0.1619764 1.001955 0.047686208
-0.34244409 1.0056157 0.046877146
-0.31688952 1.0062635 0.045944225
-0.31168681 1.0059102 0.047095053
-0.30375922 1.0051657 0.045856018
-0.29778942 1.0057051 0.046839595
-0.29282296 1.0057178 0.048365042
-0.28782144 1.0057479 0.047507241
-0.27994439 1.0052263 0.047406249
-0.26564243 1.0076903 0.048170164
-0.2624833 1.0072471 0.047083013
-0.25753981 1.005788 0.047504075
-0.25305393 1.0062673 0.047211632
-0.24746989 1.0060176 0.047743455
-0.24232131 1.0068568 0.047824774
-0.23778582 1.0068121 0.04733941
-0.23244044 1.0079592 0.047316041
-0.22692941 1.0078387 0.047078133
-0.22241114 1.008237 0.047403883
-0.21773921 1.007769 0.047606353
-0.21277115 1.0068748 0.047226265
-0.20715676 1.0067261 0.04773774
-0.20221241 1.0069901 0.047276042
-0.19784687 1.0081788 0.047579598
-0.19227438 1.0073302 0.047915328
-0.18740056 1.0068965 0.04689851
-0.1822972 1.006532 0.047656134
-0.17759335 1.0066352 0.047718212
-0.17245948 1.0072991 0.047315653
-0.16768947 1.007872 0.047748402
-0.16230918 1.0077691 0.047901407
-0.15796755 1.0087392 0.04748996
-0.15291098 1.0094426 0.047534533
-0.14954937 1.0092748 0.047936983
-0.14206663 1.008675 0.047677327
-0.13705488 1.0077003 0.048117243
-0.13173617 1.0091828 0.047484506
-0.12758528 1.0086827 0.047104951
-0.1216386 1.0084283 0.047661223
-0.11789219 1.0091385 0.047118574
-0.11235913 1.0088145 0.048110355
-0.10841762 1.0096946 0.047818452
-0.10346064 1.0090914 0.049517494
-0.092707776 1.0092887 0.047900662
-0.088050902 1.0096053 0.048078828
-0.08329545 1.0089433 0.048693646
-0.078824297 1.0094552 0.045906179
-0.074327573 1.0092338 0.047445819
-0.062790401 1.0091785 0.047813233
-0.057817265 1.0099332 0.046316791
-0.013566751 1.0093548 0.045453079
0.017598893 1.0090185 0.047765456
0.15442663 1.0068877 0.046415992
0.15749261 1.0077349 0.047939289
0.16144879 1.0060121 0.048402909
-0.26562086 1.0104426 0.049539771
-0.23100486 1.0105519 0.047233239
-0.22772439 1.0105751 0.048501812
-0.22179472 1.0109183 0.047045995
-0.19214199 1.0104028 0.045982935
-0.16845261 1.0105771 0.047254823
-0.16277015 1.0104131 0.046736151
-0.15714394 1.0108908 0.047527637
-0.15285245 1.0110847 0.047275171
-0.14785908 1.01176 0.047843475
-0.14248453 1.0129364 0.046756819
-0.13696085 1.0122962 0.047237381
-0.13261619 1.0115294 0.048114955
-0.12693851 1.0110369 0.047235306
-0.12253165 1.0124168 0.047755409
-0.11725332 1.0132586 0.047402468
-0.11214431 1.0127152 0.047358021
-0.10761364 1.0120538 0.047335289
-0.10279723 1.0126556 0.047059208
-0.097507447 1.0122317 0.047822081
-0.092537098 1.0116192 0.04781146
-0.087454878 1.0122098 0.047518354
-0.082506917 1.0119181 0.046904575
-0.077372216 1.0121408 0.047742106
-0.072939441 1.0120949 0.047591027
-0.067578524 1.0132231 0.047550622
-0.06327711 1.0130275 0.047286309
-0.057982385 1.0131401 0.047569379
-0.052258473 1.0133299 0.047244575
-0.04754385 1.0139213 0.047667846
-0.043093741 1.0144045 0.046329148
-0.036776736 1.0143429 0.04723439
-0.032460302 1.0140638 0.047396533
-0.02774653 1.0131712 0.047306206
-0.022202553 1.0132247 0.047786109
-0.017319277 1.0119331 0.047490884
-0.012200932 1.0122939 0.047825523
-0.0078876764 1.0143512 0.046237931
-0.0031760221 1.0144584 0.04811823
0.0017780757 1.0142335 0.048234865
0.0071272012 1.0138123 0.047834855
0.012813034 1.0133345 0.048090272
0.017694307 1.0124282 0.047298245
0.021827135 1.0134847 0.046915255
0.025919892 1.0142977 0.0457936
0.077753752 1.0147784 0.04732579
0.080341659 1.0144558 0.04805804
0.086915977 1.0140018 0.047548585
0.092147477 1.0144292 0.047221597
0.096846476 1.0145574 0.049113613
0.1041173 1.0149049 0.048172377
0.15730593 1.0126759 0.046757445
0.1603217 1.0140435 0.048984163
-0.14295472 1.0151687 0.047223926
-0.13862123 1.0159636 0.049501769
-0.12099101 1.0159791 0.048261024
-0.11883853 1.0159347 0.049046442
-0.11331698 1.0168546 0.047889311
-0.096416354 1.016252 0.047212407
-0.092496239 1.0158423 0.045726232
-0.087126069 1.0156252 0.046741068
-0.08278548 1.0165381 0.0477596
-0.079101913 1.0158666 0.046964027
-0.072697572 1.0154123 0.04744187
-0.067038894 1.0163383 0.048136998
-0.062691785 1.0164553 0.047790922
-0.05777505 1.0164076 0.047467232
-0.052888565 1.0158503 0.048102345
-0.047678735 1.016512 0.047755778
-0.042274855 1.0165445 0.047791723
-0.037714057 1.0162259 0.047657639
-0.032807637 1.0168501 0.047605369
-0.027611215 1.0170507 0.047465473
-0.022701876 1.0173599 0.04702355
-0.017648982 1.017338 0.047768939
-0.012752758 1.0174406 0.047478698
-0.0085275844 1.0159191 0.047111142
-0.0022004347 1.0177922 0.04636392
0.002324458 1.0177678 0.047364473
0.0073940298 1.0184877 0.047384046
0.011478028 1.0180138 0.047228072
0.018305587 1.0165623 0.047775853
0.023539644 1.0177352 0.047548901
0.027226357 1.0177234 0.048458416
0.03291874 1.0190693 0.046904553
0.037749398 1.01863 0.047830395
0.043131188 1.0185312 0.04692509
0.047675509 1.0182343 0.047885031
0.052569732 1.0185444 0.04757886
0.057707842 1.0181277 0.046793014
0.062801011 1.0187006 0.047863174
0.068156272 1.0174614 0.047552861
0.072951145 1.0176295 0.047740974
0.077380612 1.0173801 0.046954799
0.082494609 1.0169089 0.047621626
0.088259734 1.0184075 0.047033597
0.0921764 1.017872 0.047021151
0.097249866 1.0172827 0.047427855
0.10231905 1.0172256 0.048176043
0.10730103 1.0179833 0.0472547
0.11233757 1.0185306 0.047960322
0.1176618 1.0180986 0.047877602
0.1223482 1.0183411 0.047197308
0.12840298 1.0179255 0.046520114
0.13256322 1.0185049 0.047233365
0.13717216 1.0189753 0.048031755
0.15480699 1.0172738 0.049426645
0.15776926 1.0177509 0.046945184
0.16132589 1.0174667 0.046748165
-0.042076524 1.0205754 0.049878184
-0.032446351 1.0204129 0.04618331
-0.010581908 1.0207576 0.046688188
-0.0073198196 1.0218277 0.046873614
-0.0017090808 1.0214537 0.047827654
0.002874732 1.0208719 0.048327319
0.0078734765 1.0217448 0.048881382
0.012089987 1.0222237 0.047414873
0.017462265 1.0224311 0.04730244
0.022662301 1.0225384 0.047662884
0.027320484 1.0228375 0.047209699
0.031678304 1.0225196 0.046954848
0.037200686 1.0223558 0.047533318
0.042988237 1.0218945 0.047910955
0.046878479 1.0230923 0.047321025
0.052728817 1.023103 0.047026895
0.057717077 1.022055 0.047832418
0.060798943 1.0222576 0.047213729
0.077436134 1.0209758 0.046770971
0.082907461 1.0213557 0.047162529
0.08803793 1.0213836 0.047589824
0.10222487 1.0201547 0.046271019
0.10907105 1.020739 0.049340639
0.1127545 1.0215991 0.046106834
0.11836883 1.0213999 0.047805198
0.1226244 1.0213107 0.04793315
0.12713473 1.0223868 0.048221938
0.1326229 1.023543 0.047503885
0.13732043 1.0235534 0.047707926
0.14109471 1.0225431 0.048350763
0.1481085 1.0234902 0.046454899
0.15290786 1.0236211 0.048387319
0.15629868 1.022665 0.048167367
0.014020922 1.0259107 0.047688335
0.017354028 1.025911 0.046454102
0.023004957 1.0253808 0.048189491
0.026037013 1.0254021 0.048518073
0.033155363 1.0255643 0.047697715
0.049228609 1.0258245 0.046615165
0.050579432 1.0257969 0.047582686
0.059416443 1.0259128 0.049492829
0.060562223 1.0250945 0.046779346
0.12971203 1.0251247 0.04604562
0.13392234 1.0267792 0.048953671
0.13810298 1.0258638 0.047168512
0.14344071 1.0258224 0.046512783
0.14785621 1.0268339 0.047473833
0.15246521 1.0268 0.04728343
0.1565958 1.025997 0.04634935
-0.35312021 0.76959687 0.054063398
-0.35669166 0.77334547 0.052359466
-0.35257795 0.77206254 0.052589536
-0.34816217 0.77190971 0.052845035
-0.34249234 0.77333564 0.053467266
-0.35831913 0.77733344 0.052284606
-0.35241014 0.77562821 0.054831557
-0.34199226 0.77587861 0.052089918
-0.33828309 0.77781934 0.052695688
-0.36056289 0.78328049 0.051374435
-0.35945159 0.78197092 0.053061724
-0.34141031 0.78415638 0.050277088
-0.33742595 0.78236639 0.052029319
-0.36082023 0.78787613 0.052504357
-0.3597174 0.78739524 0.052280296
-0.34115314 0.78759944 0.051805228
-0.3381933 0.78730428 0.052951898
-0.33494577 0.78827971 0.052668635
-0.36122885 0.79240435 0.052253913
-0.35993189 0.79011178 0.053009547
-0.34100589 0.79170579 0.053756084
-0.33833233 0.79251152 0.05201054
-0.33433646 0.79289418 0.054503702
-0.3611967 0.79642051 0.052181453
-0.35998479 0.79942292 0.052350733
-0.33799043 0.79761034 0.053045843
0.17331728 0.79906797 0.05159124
-0.36099491 0.80221039 0.053212244
-0.3586835 0.80132926 0.052355144
-0.33670992 0.80242395 0.052597463
-0.33428904 0.80256903 0.053825069
0.17343338 0.80176038 0.052338839
0.17741953 0.80287546 0.051825207
0.18223135 0.80399358 0.050010044
-0.36181068 0.80731887 0.052559022
-0.33718029 0.80771142 0.053227358
-0.33490646 0.80528033 0.051551327
0.17387432 0.80734789 0.052883707
0.17757574 0.8077336 0.052714672
0.18020739 0.80939794 0.053495534
-0.36252278 0.8115893 0.052107889
-0.34140587 0.81398427 0.051515214
-0.33900177 0.81319708 0.052138787
0.16896439 0.81423438 0.053019755
0.17253713 0.81318396 0.052604988
0.17716728 0.81257701 0.052278209
-0.36274517 0.81589353 0.051648613
-0.34123048 0.81783009 0.053312089
-0.33844149 0.81681329 0.052393891
0.16899197 0.81670058 0.052979626
0.17185135 0.81696719 0.053083684
-0.34159169 0.82202423 0.052039154
-0.33922929 0.82291639 0.054264836
0.16938533 0.82084954 0.054404452
0.1727825 0.82339686 0.051504742
-0.36264741 0.82819867 0.054070022
-0.34103653 0.82729042 0.052407581
-0.33917391 0.82673872 0.050630681
0.16938934 0.8255977 0.050173216
0.1724851 0.82739556 0.052462585
-0.34068665 0.83241683 0.052345496
-0.33928037 0.83326405 0.052970454
0.16885445 0.83283281 0.05187171
0.17149171 0.83174628 0.052578747
-0.34055957 0.83751917 0.053041507
-0.33903727 0.83764219 0.051878463
0.16838925 0.83693337 0.052242972
0.17137472 0.83810437 0.053207029
-0.34117368 0.84313196 0.052503031
-0.33960232 0.8402065 0.053625405
0.16920765 0.84198868 0.052052211
0.1720062 0.84263796 0.052384656
0.17556514 0.84179795 0.053328581
-0.34150296 0.84775209 0.052200496
-0.3398703 0.84519339 0.050838187
0.16952012 0.84772313 0.0517052
0.17201319 0.84735352 0.053123653
-0.34156728 0.85153502 0.052297033
-0.33980668 0.85330838 0.054876473
0.16845469 0.85336244 0.052039471
0.17135029 0.85257351 0.052635629
-0.34300521 0.85775781 0.052108411
0.16891851 0.85754633 0.052735582
0.17114873 0.85782301 0.05322865
-0.3464056 0.86452836 0.050672513
-0.34347743 0.86291474 0.053018715
0.16948205 0.86299658 0.051762111
0.17102344 0.8621788 0.053034279
-0.34605059 0.86721694 0.051741723
-0.34362638 0.86810553 0.05189335
0.16853435 0.86802727 0.052326247
0.17073587 0.86803669 0.051780678
-0.34531403 0.87320054 0.052785307
-0.3434993 0.87239498 0.052297931
0.16814406 0.87268955 0.052243125
0.17038536 0.87222952 0.054063857
-0.3656323 0.87913328 0.051859736
-0.36350763 0.87825644 0.053307753
-0.34582919 0.87784654 0.052783262
-0.34339336 0.87784922 0.052203353
0.16837895 0.87781996 0.052520186
-0.36617282 0.88122743 0.051974423
-0.34527534 0.88204092 0.054451253
-0.3414335 0.88157767 0.051996976
-0.33990115 0.88405615 0.051141888
0.16879317 0.88288391 0.052343141
0.17033336 0.88405824 0.051402055
-0.34118807 0.88749439 0.05351622
-0.33942643 0.88765132 0.052571602
0.16826954 0.88805139 0.052764259
0.17038135 0.88733453 0.052406486
-0.36605757 0.89399755 0.054104351
-0.34207836 0.89309484 0.05193295
-0.33895171 0.89124644 0.054001313
0.16488639 0.89080161 0.054637585
0.16751072 0.8920905 0.052666754
0.17034775 0.89359331 0.052274249
-0.36740699 0.89688116 0.051874965
-0.34203541 0.89795309 0.052649483
-0.33970094 0.89988118 0.053439628
0.16244668 0.89842397 0.051473167
0.16727428 0.89762384 0.051698048
0.170091 0.89664322 0.051921096
-0.34635505 0.90229028 0.052654132
-0.34299788 0.9031949 0.052246958
0.16375636 0.90261388 0.052714702
0.16667324 0.9024384 0.052442506
-0.34630656 0.90698898 0.051305719
-0.34419981 0.90684223 0.052983802
0.16355224 0.90878922 0.051909048
0.16680044 0.90725613 0.052382439
-0.34625217 0.91253787 0.053230941
-0.34420174 0.9130165 0.052649416
0.16265611 0.913046 0.051936451
0.16622905 0.91231138 0.054020494
-0.3457779 0.91797149 0.052277911
-0.34450322 0.91594458 0.051885463
0.15928477 0.91619921 0.051246967
0.16248214 0.91715634 0.052953787
0.16578701 0.9169867 0.054345578
-0.34577721 0.92233664 0.05447714
-0.34400302 0.92182076 0.052789416
0.16208993 0.92238426 0.051872775
0.16591239 0.9236539 0.051937904
-0.34622324 0.92640436 0.051369894
-0.3436819 0.92722154 0.053413935
0.15997879 0.92589831 0.053836059
0.16311748 0.92694223 0.052230664
0.16558318 0.92705464 0.052896634
-0.34724441 0.93250674 0.052509021
-0.34425741 0.93228865 0.052753262
0.16303919 0.93221986 0.052218962
0.1660495 0.93023115 0.051590052
-0.34802738 0.93758488 0.05294029
0.16282701 0.93807787 0.052193698
0.16524124 0.93789279 0.052001607
-0.35036892 0.94188261 0.051474486
-0.34810877 0.94213456 0.052289803
0.16286671 0.94236481 0.052779231
0.16567892 0.94109213 0.050702251
-0.34786186 0.94726312 0.052168299
0.16161805 0.94739014 0.052697793
0.16782308 0.94808447 0.051711947
-0.34697095 0.95269006 0.053083062
0.1622847 0.95306385 0.053080238
0.16658477 0.95236015 0.052329782
-0.34636235 0.9573952 0.052206475
-0.3444539 0.95625317 0.053956203
0.15962338 0.95834225 0.052680042
0.16239505 0.95736289 0.052787796
-0.34657389 0.96238041 0.05323422
-0.34429905 0.96265048 0.051539581
0.15886512 0.96423858 0.051720351
0.16224417 0.96287835 0.051936764
-0.34585392 0.96754593 0.052806407
-0.34355894 0.96768641 0.053481828
0.15824232 0.96761113 0.052430876
0.16172577 0.96694487 0.052550379
-0.34720066 0.97268903 0.052728191
-0.34422937 0.97246695 0.050914634
0.15738383 0.97193211 0.053229231
0.16098404 0.9733448 0.050399199
-0.3507559 0.97695267 0.052911412
-0.34811413 0.97725785 0.051858537
0.15842851 0.97776335 0.052241169
0.16080472 0.97892994 0.052736945
-0.35063016 0.98372006 0.050704747
-0.34843501 0.98249024 0.053834297
0.15824448 0.98253077 0.052604143
0.16008253 0.98104322 0.052133031
-0.35076138 0.9867543 0.052339427
-0.34911534 0.98915052 0.052222304
0.15815417 0.98791891 0.052316386
0.1609263 0.98728979 0.052059725
-0.35125574 0.9920913 0.052117188
-0.34890637 0.99274719 0.053866655
-0.32588035 0.99401969 0.052525334
0.15797625 0.99203658 0.052862287
0.16060629 0.99089986 0.05478128
-0.35074827 0.99660844 0.051778756
-0.34806326 0.99764138 0.052734304
-0.33684886 0.99800092 0.052326735
-0.33221155 0.99801826 0.053331498
-0.32662773 0.99771333 0.053609222
-0.32252711 0.99817026 0.051918373
-0.31785583 0.99894494 0.054065458
-0.27317479 0.9998349 0.050273154
0.15763026 0.99696481 0.052919317
0.16149378 0.99838817 0.051716376
-0.3465758 1.0016421 0.050957512
-0.34266227 1.0022361 0.053163782
-0.33766618 1.0026175 0.052552987
-0.33338532 1.002561 0.051837392
-0.32800052 1.0018146 0.052643836
-0.32186246 1.0021414 0.053384721
-0.31781337 1.0019838 0.052253127
-0.31248862 1.0030197 0.051799528
-0.30676061 1.0030007 0.052696362
-0.30209613 1.0025333 0.052950069
-0.29814613 1.0033158 0.051438443
-0.29287297 1.0038352 0.052972622
-0.28828776 1.0046159 0.052040033
-0.28204435 1.0033919 0.052768316
-0.27765214 1.0023446 0.052842826
-0.2730428 1.0024273 0.052576516
-0.26725492 1.0027107 0.052474342
-0.26365459 1.003824 0.051826324
-0.25694102 1.0042353 0.054013308
-0.25200137 1.004348 0.051353898
-0.24798541 1.0038793 0.051940832
-0.24177895 1.0040892 0.051123824
-0.23656201 1.0033973 0.052941732
-0.232492 1.0038044 0.052767403
-0.22955605 1.0049045 0.05220018
-0.22273557 1.0048041 0.053715151
-0.19119872 1.0045029 0.053654455
-0.18737374 1.003844 0.051991872
-0.18238087 1.0044246 0.052817296
-0.17543322 1.0045503 0.051214378
-0.17264792 1.0032873 0.053852357
-0.1686992 1.0031431 0.053359833
0.15835883 1.0016545 0.053094309
0.16125067 1.0028659 0.051164359
-0.34321514 1.0051467 0.050019253
-0.33867934 1.0057536 0.052190855
-0.31108809 1.005222 0.051782306
-0.30135244 1.0051289 0.054932434
-0.29922807 1.0054616 0.053390492
-0.29209408 1.0060647 0.052917667
-0.28686079 1.0058678 0.052376244
-0.28187209 1.0055349 0.052790269
-0.27552211 1.0053577 0.054945394
-0.26619661 1.0076774 0.054125659
-0.26232058 1.0074688 0.05264305
-0.25702497 1.0067273 0.051768482
-0.25278702 1.0068408 0.052749973
