# .PCD v0.7 - Point Cloud Data file format
VERSION 0.7
FIELDS x y z
SIZE 4 4 4
TYPE F F F
COUNT 1 1 1
WIDTH 1385
HEIGHT 1
VIEWPOINT 0 0 0 1 0 0 0
POINTS 1385
DATA ascii
0.15836221 0.63885766 -0.33746785
0.16259773 0.63858557 -0.33712098
0.167817 0.63887811 -0.33755961
0.17252488 0.6385904 -0.33789906
0.17772208 0.63867909 -0.33683333
0.18324627 0.63802987 -0.33760294
0.18811516 0.63798261 -0.33805585
0.19219574 0.637631 -0.33713144
0.19725637 0.63815588 -0.33818886
0.20259483 0.63689929 -0.33860126
0.2077312 0.63810951 -0.33656606
0.21336506 0.63850468 -0.33789963
0.21752571 0.63822788 -0.33731148
0.22218639 0.63837039 -0.33678216
0.22776709 0.63862813 -0.3377412
0.2327376 0.63809627 -0.33853066
0.23711319 0.63740677 -0.33721036
0.24223691 0.63702124 -0.336788
0.24663854 0.63811404 -0.33762366
0.25263113 0.63580024 -0.33745313
0.25646839 0.63532174 -0.33636719
0.26503372 0.63513142 -0.33989581
0.27356291 0.63565683 -0.33623064
0.28906366 0.63569748 -0.33560494
0.29099742 0.63545638 -0.33505768
0.29875246 0.63535458 -0.33882543
-0.37105885 0.6449182 -0.33938453
-0.36680239 0.64498329 -0.33588126
-0.36323589 0.64413142 -0.33917874
-0.32896414 0.64381772 -0.33794519
-0.32228968 0.64299375 -0.33683458
-0.31952792 0.64409912 -0.33849841
-0.2885271 0.64490032 -0.33858985
-0.26813811 0.64388776 -0.33857083
-0.2624332 0.64414817 -0.33642596
-0.25742155 0.64390874 -0.33752748
-0.2515429 0.64440203 -0.33787027
-0.24191639 0.64430034 -0.33876956
-0.23654634 0.64432466 -0.33698219
-0.23208468 0.64411694 -0.33765683
-0.22751653 0.64421076 -0.33829093
-0.22213763 0.64359111 -0.33655381
-0.2180355 0.64339674 -0.33801433
-0.21308547 0.64296108 -0.33785114
-0.20834933 0.64268935 -0.33634269
-0.20319223 0.64338118 -0.33824387
-0.19737436 0.64419615 -0.33717233
-0.19002697 0.64493722 -0.33688912
-0.18791641 0.64380109 -0.33832902
-0.18192771 0.64339989 -0.33783236
-0.17682324 0.64369237 -0.3371942
-0.17167778 0.64450288 -0.33802322
-0.16746169 0.64427298 -0.33748335
-0.16244172 0.6439324 -0.33645433
-0.15659326 0.64357758 -0.33888257
-0.15270226 0.64372826 -0.33688164
-0.14713931 0.64285678 -0.33740559
-0.14264792 0.64381868 -0.33820263
-0.13857527 0.64411783 -0.33661452
-0.13256855 0.64396816 -0.3392047
-0.12756795 0.64371443 -0.3377839
-0.12225194 0.64338535 -0.33699295
-0.11697966 0.6436013 -0.33733323
-0.11225171 0.64390111 -0.33766857
-0.10776061 0.64350665 -0.3374559
-0.10307918 0.64300787 -0.33725238
-0.097855546 0.64277488 -0.33721322
-0.092523322 0.64280212 -0.33705708
-0.087330408 0.64256138 -0.33831504
-0.082219042 0.6429534 -0.33682632
-0.077821851 0.64291 -0.33681569
-0.07324741 0.64220399 -0.33888921
-0.068053722 0.64281613 -0.33699062
-0.06233611 0.64312518 -0.33770606
-0.057205237 0.64291936 -0.3376143
-0.052380949 0.64256525 -0.33782563
-0.047295894 0.64247841 -0.33715966
-0.042382676 0.64220202 -0.33761874
-0.037633304 0.64177525 -0.33760861
-0.032384202 0.64258945 -0.33761728
-0.027581353 0.64354169 -0.33839172
-0.022812419 0.64336807 -0.33770341
-0.017253244 0.64209986 -0.33734378
-0.012169798 0.64278364 -0.33770615
-0.0072350153 0.64203542 -0.33863288
-0.0026119386 0.64238423 -0.33704993
0.0030982264 0.64221823 -0.33775148
0.0073419209 0.64212298 -0.33799681
0.012073288 0.64248514 -0.33710063
0.017644871 0.64271432 -0.33809137
0.022961468 0.6420213 -0.33706099
0.027507134 0.64181834 -0.3373999
0.032862648 0.64219201 -0.33797958
0.03737485 0.6423642 -0.33691123
0.042166498 0.64173836 -0.3374927
0.047689825 0.64210361 -0.33767733
0.052215666 0.64231718 -0.33732837
0.057736661 0.64129287 -0.33738509
0.062405635 0.64069867 -0.33755007
0.067653716 0.64054298 -0.33703688
0.072878405 0.64107263 -0.3363201
0.077612855 0.64101034 -0.3379294
0.081869394 0.64061338 -0.33818987
0.087444656 0.64117956 -0.33749443
0.092281215 0.64102763 -0.33773717
0.097232908 0.64110833 -0.33739528
0.10191838 0.64183885 -0.33835641
0.10634834 0.64079911 -0.3387861
0.11259956 0.64063138 -0.33653525
0.11761545 0.64023626 -0.33759189
0.12167817 0.64027566 -0.33832452
0.12791787 0.64086479 -0.33640718
0.13325252 0.64084738 -0.33732539
0.13775721 0.64117217 -0.33679384
0.14328246 0.6414541 -0.33846679
0.14736372 0.64191979 -0.33774349
0.15223047 0.64094794 -0.33709759
0.15641548 0.64177811 -0.33653557
0.16310003 0.64157301 -0.3391318
0.16743629 0.6409806 -0.3379454
0.17186953 0.64028198 -0.33703697
0.17832625 0.64055294 -0.33807337
0.1802658 0.64092082 -0.33531159
0.19312018 0.64025468 -0.3377125
0.19766738 0.64064395 -0.33743089
0.20206912 0.64103878 -0.33824703
0.20805845 0.640571 -0.33853656
0.21211402 0.64029765 -0.33676571
0.2175447 0.64035428 -0.33685559
0.22179325 0.64022374 -0.33734867
0.22797601 0.64015049 -0.33900827
0.23207466 0.64064366 -0.33747765
0.23829062 0.64079803 -0.337524
0.24368525 0.64080203 -0.33742872
0.24725913 0.64100862 -0.33606255
-0.49542233 0.64948714 -0.33810633
-0.49224213 0.64869171 -0.33752042
-0.48747686 0.64823616 -0.33667609
-0.48178822 0.64933777 -0.33701283
-0.47738779 0.64832199 -0.33799133
-0.47245631 0.64944679 -0.33731285
-0.46736962 0.64853042 -0.33817235
-0.46221289 0.64922804 -0.33762151
-0.45799679 0.64931607 -0.33743674
-0.45336685 0.64898324 -0.33847249
-0.44767827 0.64880288 -0.33679959
-0.44263253 0.64901584 -0.33772433
-0.43750045 0.6488061 -0.33722463
-0.43363896 0.64923775 -0.33866867
-0.42711839 0.64951909 -0.33807084
-0.41754338 0.64742166 -0.3379654
-0.41216356 0.64871567 -0.33750343
-0.40723565 0.6488201 -0.3373861
-0.40271401 0.64947832 -0.33752602
-0.39759794 0.64849293 -0.33858061
-0.39243683 0.64868921 -0.33706352
-0.38777718 0.64855814 -0.33777717
-0.38205856 0.64818841 -0.33694193
-0.37789884 0.64801842 -0.33732352
-0.37226927 0.64819455 -0.33694673
-0.36791924 0.64835387 -0.33759773
-0.36262292 0.64742613 -0.33796027
-0.35769781 0.6485461 -0.33707869
-0.35260558 0.64813453 -0.3376177
-0.34712678 0.64847666 -0.33697671
-0.34246042 0.64816844 -0.33867741
-0.33680278 0.64741224 -0.33737868
-0.33177277 0.64699173 -0.3364594
-0.32792914 0.64779103 -0.33804566
-0.3226074 0.64766264 -0.33702686
-0.31782731 0.64738297 -0.33771726
-0.31203824 0.64832765 -0.3370153
-0.30813923 0.64734507 -0.33764732
-0.30310521 0.64655173 -0.33753136
-0.29821885 0.64650404 -0.33730301
-0.29204509 0.64658254 -0.33771095
-0.28689167 0.6468358 -0.33698916
-0.28290176 0.64701974 -0.33824724
-0.27784258 0.64672881 -0.33693397
-0.27277869 0.64651275 -0.33751485
-0.26759279 0.64581811 -0.3373448
-0.26012069 0.64579362 -0.33503038
-0.25782973 0.6462394 -0.33836195
-0.25246173 0.64656967 -0.33662879
-0.24734256 0.64681703 -0.33781704
-0.24251458 0.6463505 -0.3373003
-0.23821783 0.64580393 -0.33635819
-0.23257165 0.64596957 -0.33900648
-0.2260811 0.64575988 -0.33669746
-0.223138 0.64541745 -0.3366425
-0.21169029 0.64513087 -0.33784175
-0.20752317 0.64540076 -0.33761013
-0.20298475 0.64610082 -0.33746031
-0.19708307 0.64595085 -0.33671704
-0.19270936 0.64541388 -0.33721858
-0.18661387 0.64630574 -0.33861762
-0.1816117 0.64719313 -0.33721945
-0.17761803 0.64627856 -0.33736554
-0.17334405 0.64588076 -0.33771902
-0.16657765 0.64564675 -0.33704045
-0.16327178 0.64521146 -0.33673757
-0.15863213 0.64567608 -0.33856666
-0.15282893 0.64608222 -0.33642393
-0.14838903 0.64549601 -0.33751839
-0.14316951 0.64619529 -0.33663887
-0.13730152 0.64560586 -0.33671704
-0.1326836 0.64547879 -0.33852106
-0.12934189 0.64510655 -0.33709735
-0.11616059 0.64522243 -0.3360334
-0.10283419 0.64517254 -0.33574602
-0.087473281 0.64542216 -0.33694363
-0.041244868 0.64575452 -0.33799535
-0.037446506 0.64528096 -0.33692038
-0.030896392 0.64648181 -0.33879268
-0.027607046 0.64607167 -0.33786178
-0.010249321 0.64518028 -0.33988395
-0.0077222791 0.64503413 -0.33647498
0.015779532 0.64521885 -0.33793962
0.048426144 0.64517248 -0.3361614
-0.50101906 0.65342593 -0.33713764
-0.49692872 0.65113342 -0.33738399
-0.49318016 0.65050399 -0.33645079
-0.48924962 0.65001386 -0.33533841
-0.48220307 0.6507526 -0.33705327
-0.47775942 0.65026104 -0.33674306
-0.47373474 0.65095735 -0.33917689
-0.46800685 0.65069002 -0.33816868
-0.46372908 0.65017283 -0.33777934
-0.45993581 0.65102333 -0.33532783
-0.44992581 0.65001696 -0.33629084
-0.44246775 0.6516943 -0.33804297
-0.43645024 0.65183079 -0.33708262
-0.43278441 0.65139985 -0.3370896
-0.42813689 0.65078121 -0.33721852
-0.42453864 0.65080214 -0.33830801
-0.4177517 0.6508562 -0.33891165
-0.41293511 0.65116417 -0.33723164
-0.40833864 0.65103436 -0.33558172
-0.40088058 0.65083677 -0.33820942
-0.39794159 0.65021896 -0.33762035
-0.39278847 0.65051973 -0.33769888
-0.38067868 0.65110373 -0.33542404
-0.36815974 0.65004873 -0.33831573
-0.30675399 0.65011472 -0.3388451
-0.29976305 0.65011626 -0.33619428
-0.50593448 0.65823567 -0.33655208
-0.50320065 0.65729183 -0.3369177
-0.50704193 0.66300821 -0.33753389
-0.50389737 0.66119826 -0.33609974
-0.51108146 0.66660935 -0.33856294
-0.50842839 0.66815567 -0.33792821
-0.51043445 0.67171717 -0.33827975
-0.50872976 0.67019576 -0.33882818
-0.48689544 0.90906596 -0.33770278
-0.49647492 0.91479838 -0.33683968
-0.49182075 0.91346174 -0.33611825
-0.48675978 0.91234362 -0.33706275
-0.48196658 0.91421533 -0.33708334
-0.47951156 0.9139092 -0.33638853
-0.5059188 0.91900122 -0.33712959
-0.50196862 0.91843981 -0.33739471
-0.49771276 0.91704226 -0.33607575
-0.49373993 0.91645688 -0.33752811
-0.48871791 0.91505706 -0.33899394
-0.5060544 0.92053086 -0.3359766
-0.50144666 0.92170495 -0.33861041
-0.9995141 0.37953189 -0.33449402
0.20721498 0.63463509 -0.33309451
0.24317595 0.6341089 -0.33043072
0.24880439 0.63430417 -0.33477521
0.25266859 0.63337195 -0.33403641
0.25740796 0.6332314 -0.33234039
0.26159382 0.63341951 -0.33165964
0.26679868 0.63383603 -0.33359948
0.27320305 0.63323528 -0.3316313
0.27757317 0.63269037 -0.33039451
0.28255948 0.63320255 -0.33399594
0.28705204 0.63397503 -0.3324132
0.29384902 0.63411421 -0.33237013
0.29775336 0.63355106 -0.33398291
0.30239391 0.63363683 -0.33214638
0.30646741 0.63352752 -0.33067966
-0.046835076 0.63992321 -0.33379257
-0.042215906 0.63895249 -0.33248168
-0.037570447 0.63880444 -0.332156
-0.032636132 0.63926113 -0.33037919
0.038394209 0.63962036 -0.33217183
0.040417079 0.63993615 -0.33363944
0.047490604 0.63945103 -0.33267879
0.051660411 0.6398052 -0.33309618
0.056449372 0.63915694 -0.33252573
0.06427177 0.63987207 -0.33355349
0.066060573 0.63995951 -0.33354482
0.077671796 0.63985455 -0.33055151
0.084365517 0.63959342 -0.33193004
0.087091915 0.63993824 -0.33229434
0.10255828 0.63943416 -0.33182204
0.10683739 0.63920081 -0.33276349
0.1122676 0.63878077 -0.3323743
0.11778256 0.63895297 -0.33252636
0.12170774 0.63920748 -0.33352101
0.12776747 0.63935804 -0.33277485
0.1336759 0.63999891 -0.33431405
0.13838106 0.6396414 -0.33245391
0.14304575 0.63911939 -0.33248308
0.1482437 0.63951337 -0.33260423
0.15300322 0.63952011 -0.33267152
0.15730284 0.63869858 -0.3322084
0.16268626 0.63810515 -0.33189985
0.16774333 0.63916022 -0.33224905
0.172095 0.63839203 -0.33232
0.17775452 0.6381008 -0.33196571
0.1827058 0.63805592 -0.33237585
0.18745984 0.6378063 -0.33259767
0.1924776 0.63832963 -0.3313846
0.1981941 0.6383217 -0.33296198
0.20216192 0.63827211 -0.33218056
0.20661713 0.63782936 -0.3318471
0.2123908 0.63878572 -0.33301979
0.21739843 0.63862151 -0.33185616
0.22244953 0.63872147 -0.33295751
0.22769053 0.63832647 -0.33259782
0.23244101 0.63796932 -0.33209908
0.23725982 0.63753837 -0.33119512
0.24290304 0.63843697 -0.33366147
0.24759659 0.63657641 -0.3333351
0.25284106 0.6356926 -0.33214292
0.25616938 0.6365388 -0.33020771
0.26304176 0.6360842 -0.33326098
0.2678383 0.63548613 -0.33190355
0.28726658 0.63585508 -0.33085081
0.2935043 0.63594109 -0.33372039
0.29665571 0.63634539 -0.33220059
0.30245697 0.63562208 -0.33055881
-0.36199701 0.64471906 -0.33160681
-0.35844761 0.64387125 -0.33488852
-0.32382318 0.64381766 -0.33346266
-0.31877184 0.64365995 -0.33243418
-0.29621196 0.64457482 -0.33247441
-0.29404438 0.64475977 -0.33150244
-0.27444506 0.64492172 -0.33297771
-0.26710123 0.64465779 -0.33104619
-0.2631745 0.64451373 -0.33275926
-0.25848052 0.64465356 -0.33216438
-0.25224906 0.64490211 -0.33015689
-0.24652198 0.64446729 -0.33498165
-0.23591012 0.64453882 -0.33175033
-0.23193355 0.64413637 -0.33254415
-0.22767319 0.64370006 -0.33250681
-0.22214919 0.6434226 -0.33188257
-0.21725972 0.64369446 -0.33348778
-0.21216041 0.64320046 -0.33275616
-0.20757085 0.64384854 -0.33279911
-0.20290223 0.64335024 -0.33321431
-0.19175801 0.64493757 -0.33338791
-0.1874097 0.64398158 -0.33374566
-0.18147001 0.64368814 -0.33116171
-0.178059 0.64428109 -0.3335323
-0.17228119 0.64419502 -0.33205661
-0.1696279 0.64442247 -0.33483341
-0.16132236 0.64413023 -0.33166507
-0.1578646 0.64401346 -0.33350238
-0.15275492 0.64350301 -0.33173668
-0.14795826 0.64419383 -0.33168268
-0.1430984 0.6439389 -0.33335394
-0.13728052 0.64418507 -0.33182466
-0.13232222 0.64458674 -0.33297434
-0.12751894 0.64361143 -0.33282495
-0.12218744 0.64286792 -0.33175901
-0.11724713 0.64353657 -0.33291703
-0.11212049 0.64345771 -0.33278605
-0.10738226 0.6434682 -0.33210382
-0.1026357 0.64273 -0.3325116
-0.097182333 0.64273101 -0.3325448
-0.092263885 0.64279425 -0.33238548
-0.087404549 0.6428296 -0.33273172
-0.082485981 0.64279568 -0.33197552
-0.077127889 0.6431607 -0.33270004
-0.07274165 0.64262491 -0.33300644
-0.06816002 0.64299071 -0.33200759
-0.062532373 0.64320517 -0.33270505
-0.057644527 0.64303064 -0.33174145
-0.052686289 0.64296514 -0.33281302
-0.047154125 0.64275944 -0.33278999
-0.042740803 0.6426571 -0.3317605
-0.037535559 0.64312792 -0.33206415
-0.032600302 0.64330167 -0.33281168
-0.026945524 0.64306629 -0.33355984
-0.022325505 0.64317757 -0.33258185
-0.01762405 0.64213336 -0.33222643
-0.012183033 0.64222354 -0.33230969
-0.0071536489 0.64254427 -0.33273473
-0.0022749007 0.64308453 -0.33197951
0.002619931 0.6429925 -0.33358058
0.0072573721 0.64285976 -0.33235648
0.012512157 0.64265108 -0.33158514
0.017966552 0.64238393 -0.33303827
0.022535423 0.64277011 -0.33216235
0.027225299 0.64248329 -0.33151162
0.032061253 0.64216554 -0.33314046
0.037488658 0.64264035 -0.33222282
0.042934909 0.64194739 -0.33292127
0.047216933 0.64278775 -0.33255604
0.052749172 0.64233953 -0.33246702
0.057773869 0.6414808 -0.33257601
0.062794611 0.64148855 -0.33264914
0.067487605 0.64174372 -0.3315354
0.072330162 0.64204437 -0.3333292
0.077648453 0.64168495 -0.33291081
0.082576521 0.6413005 -0.33180347
0.087651215 0.6408658 -0.33272135
0.092641398 0.64097667 -0.3330442
0.097227514 0.64089042 -0.33262971
0.10158987 0.64099294 -0.33282208
0.10753712 0.640791 -0.33302438
0.11161812 0.64028215 -0.33186942
0.12255964 0.64069605 -0.33225599
0.1272403 0.6405189 -0.33142015
0.13291568 0.64090812 -0.33324632
0.13745829 0.64196914 -0.33225298
0.14275698 0.64186585 -0.33343717
0.14715619 0.64111406 -0.33317053
0.15288056 0.64114028 -0.33140945
0.1577134 0.64071965 -0.33202443
0.16308019 0.64063269 -0.33323613
0.17294921 0.64061356 -0.33216766
0.17830847 0.64051807 -0.33256185
0.19391072 0.64007944 -0.33430043
0.20295706 0.64071208 -0.33312222
0.20720367 0.64071655 -0.33198538
0.21260583 0.64048767 -0.33218029
0.21652351 0.6402458 -0.33091673
0.22199363 0.64052314 -0.33115482
0.22947492 0.64070481 -0.3314079
0.23203258 0.64077932 -0.33223712
0.23748653 0.64092588 -0.33238143
0.24266089 0.64057457 -0.33268204
0.24755847 0.64084065 -0.33294123
-0.49112183 0.6493386 -0.33259761
-0.48785508 0.64900023 -0.33208787
-0.48394793 0.64876282 -0.33249074
-0.47692782 0.64973384 -0.3317818
-0.47271079 0.64922392 -0.33291751
-0.46627578 0.64926708 -0.33072314
-0.46247542 0.64873332 -0.33306989
-0.4564054 0.64909542 -0.33260134
-0.45254034 0.64857996 -0.33284849
-0.44675371 0.6490587 -0.33270866
-0.44289717 0.64898235 -0.33259425
-0.43730125 0.64864987 -0.33293495
-0.43315014 0.64925951 -0.33171004
-0.4257136 0.64986598 -0.33116645
-0.42271167 0.64905119 -0.33191872
-0.4174687 0.64773214 -0.33141652
-0.41323841 0.64904624 -0.33296168
-0.40639299 0.64864457 -0.33142096
-0.40234923 0.64879268 -0.33259079
-0.39737985 0.64857787 -0.3325628
-0.39182127 0.64849138 -0.33128813
-0.38758373 0.64889556 -0.33262479
-0.38346732 0.64871234 -0.333213
-0.37777647 0.64856464 -0.33214948
-0.37265679 0.6485585 -0.33285719
-0.36779115 0.64828598 -0.33262444
-0.36260566 0.64762133 -0.33168718
-0.35773596 0.64777118 -0.33267951
-0.35243198 0.64779902 -0.33201826
-0.3476994 0.64873308 -0.33299553
-0.34299356 0.64823782 -0.33269987
-0.33758101 0.64792114 -0.33193871
-0.33339748 0.64750391 -0.33159092
-0.32716557 0.64709419 -0.33267459
-0.32244369 0.64733076 -0.3324039
-0.31763068 0.64751893 -0.33305064
-0.31305107 0.64840555 -0.33302966
-0.30784985 0.64726168 -0.33188081
-0.30249807 0.64744622 -0.33317953
-0.2976585 0.64642066 -0.33221045
-0.29278797 0.64680767 -0.33240938
-0.28714985 0.64679468 -0.33192784
-0.28209502 0.64706099 -0.33333686
-0.27720079 0.64737225 -0.33222604
-0.27224091 0.64673024 -0.33247134
-0.26747504 0.64578944 -0.33310786
-0.26283774 0.64598215 -0.33193135
-0.25725716 0.64628637 -0.33288464
-0.25169903 0.64696509 -0.33118182
-0.24775106 0.64647073 -0.33300126
-0.24218538 0.64595628 -0.33274731
-0.23722714 0.64605606 -0.33240831
-0.23384324 0.64581776 -0.33245692
-0.22586468 0.64509207 -0.33182579
-0.21602654 0.64590526 -0.3327502
-0.21195458 0.64539748 -0.33159781
-0.20845626 0.64553267 -0.33269012
-0.20246229 0.64601564 -0.33237657
-0.19720477 0.64646047 -0.33307073
-0.193314 0.64614743 -0.33316764
-0.18742654 0.64602697 -0.33249581
-0.18328375 0.64633369 -0.33242157
-0.17828591 0.64629906 -0.33134091
-0.17276733 0.64597845 -0.3321858
-0.16773367 0.64580089 -0.33311194
-0.16292857 0.64614695 -0.33213758
-0.15808308 0.64587206 -0.33319315
-0.15289977 0.64559448 -0.33169857
-0.14706019 0.64587295 -0.33438963
-0.14232653 0.64627516 -0.33227736
-0.13725477 0.64614296 -0.33202425
-0.13318327 0.64583713 -0.33356649
-0.12828724 0.64569485 -0.33185494
-0.11325361 0.64523345 -0.33285093
-0.09887854 0.64533365 -0.33333102
-0.094940186 0.64548314 -0.33090815
-0.083266735 0.64536959 -0.33208075
-0.042461738 0.64535689 -0.33345723
-0.039790638 0.64502394 -0.3327013
-0.025289811 0.64523906 -0.33231926
-0.017421927 0.64523888 -0.33408636
-0.014867512 0.64509249 -0.3306995
0.00759611 0.64518505 -0.33045584
0.011680606 0.64520836 -0.33419541
0.035469353 0.64575595 -0.33001089
0.043264315 0.64568102 -0.33241358
0.045681205 0.64550483 -0.33163103
-0.50131756 0.65362513 -0.33310831
-0.49751922 0.65157217 -0.33327726
-0.49326086 0.65098989 -0.33211252
-0.48894477 0.65100551 -0.33045489
-0.4822908 0.6504426 -0.33234805
-0.47887981 0.65031326 -0.33285806
-0.46676049 0.65022695 -0.3331207
-0.46229857 0.65068114 -0.33143005
-0.45834845 0.65082544 -0.33487862
-0.44130298 0.65102613 -0.33299649
-0.4392778 0.65284747 -0.33429629
-0.43222204 0.65137666 -0.33246952
-0.42765805 0.65057403 -0.33254591
-0.42310673 0.65052581 -0.33192682
-0.4162581 0.65048444 -0.3338106
-0.41167784 0.65100461 -0.33289176
-0.40748271 0.65118259 -0.33181691
-0.40289637 0.65031075 -0.33219397
-0.39315838 0.65016574 -0.33413312
-0.38572782 0.65031564 -0.33176085
-0.38400519 0.65043879 -0.33310074
-0.3789041 0.65076458 -0.33012864
-0.37327752 0.65028095 -0.33211112
-0.50584781 0.65885633 -0.33151242
-0.50283873 0.65673608 -0.33154464
-0.51073432 0.66436017 -0.3322295
-0.50745434 0.66243875 -0.33249244
-0.50427115 0.66160977 -0.33193192
-0.51085055 0.66567105 -0.33124137
-0.50838792 0.66971147 -0.33309984
-0.51072884 0.67145801 -0.33460978
-0.48654273 0.90930873 -0.33206201
-0.48281956 0.90809095 -0.3316018
-0.49214059 0.91332245 -0.33103478
-0.48764786 0.91225636 -0.33206007
-0.48293278 0.91225863 -0.33261475
-0.50212288 0.91888028 -0.33245587
-0.49767199 0.91652858 -0.33120874
-0.49346784 0.91669255 -0.33420166
-0.48927233 0.91541302 -0.33361
-0.50636768 0.921453 -0.3327122
-0.50280392 0.92168903 -0.33276239
0.24818157 0.6342696 -0.32839608
0.25282899 0.63302606 -0.32760382
0.25643003 0.63324118 -0.32606173
0.26281112 0.63413423 -0.3295697
0.26847726 0.63342774 -0.32796621
0.27209157 0.63365281 -0.32641125
0.27693787 0.63402188 -0.32870227
0.28036606 0.63329136 -0.32885659
0.28990242 0.63273513 -0.32565939
0.29240087 0.63407266 -0.3280828
0.29714337 0.63359958 -0.3288621
0.30187976 0.63331801 -0.32727838
-0.046288598 0.63950729 -0.32892686
-0.042484365 0.63942242 -0.32789284
-0.03579035 0.63876885 -0.32809079
-0.032824636 0.63956177 -0.32731873
-0.029421147 0.63983172 -0.32716236
-0.021618243 0.63977659 -0.32592037
-0.019842548 0.63955522 -0.32541785
-0.011167269 0.63998675 -0.32575729
0.033490844 0.63999271 -0.32804099
0.042692352 0.63968468 -0.3273237
0.04965974 0.63932359 -0.3275941
0.064745218 0.63976544 -0.32985198
0.079592966 0.63995582 -0.32790941
0.093935505 0.63999766 -0.32820401
0.09853036 0.63944858 -0.32726723
0.10237651 0.63918918 -0.32655933
0.10793769 0.63905734 -0.32744384
0.11302395 0.63883752 -0.3268728
0.11791265 0.63855302 -0.32733664
0.12230916 0.63850737 -0.32755637
0.12649648 0.63995087 -0.32645875
0.13251638 0.63964951 -0.32719508
0.13977875 0.63941497 -0.32832813
0.14254871 0.6394636 -0.32752308
0.14754781 0.63921934 -0.32744151
0.15219614 0.63929516 -0.32749721
0.15780723 0.63814515 -0.3274391
0.16280451 0.63888091 -0.32794473
0.16756523 0.63869679 -0.32747656
0.17261323 0.6387071 -0.32706326
0.17723379 0.63800716 -0.32660979
0.18202403 0.63791627 -0.32822269
0.18691659 0.63764679 -0.32726905
0.19167119 0.63858724 -0.32708549
0.19725521 0.63846153 -0.32816243
0.20214972 0.63863474 -0.32712099
0.20812364 0.63855362 -0.32825574
0.21260801 0.63893276 -0.32734329
0.21734978 0.63917488 -0.32739148
0.22293548 0.63918865 -0.32821074
0.22783305 0.63849026 -0.32753009
0.23230635 0.63835359 -0.3265968
0.23726422 0.63862592 -0.32835618
0.24252903 0.63719136 -0.32783231
0.24692965 0.63768196 -0.32731816
0.25124919 0.63694972 -0.32597885
0.25935587 0.63614154 -0.32930595
0.26254237 0.63574421 -0.32840419
0.26712742 0.63556659 -0.32679617
0.27441168 0.63624859 -0.32879731
0.27633029 0.63600934 -0.32825434
0.28126201 0.63602728 -0.32636032
0.28881156 0.6371606 -0.32923365
0.29250088 0.63700324 -0.32795119
0.29775131 0.63581896 -0.32688245
0.30121994 0.63538647 -0.32590082
-0.29817599 0.64374089 -0.32989353
-0.27171639 0.64468968 -0.32811782
-0.26660448 0.64471996 -0.32559785
-0.26348919 0.64423752 -0.32906687
-0.2546117 0.64453334 -0.32844275
-0.24133348 0.64480406 -0.32785082
-0.23695053 0.6444782 -0.3282688
-0.23243418 0.6436733 -0.32672605
-0.22685735 0.64361989 -0.32846847
-0.22256428 0.64388746 -0.32772657
-0.21781945 0.64348251 -0.32771575
-0.21215238 0.64334828 -0.32690948
-0.20781034 0.64398414 -0.3277162
-0.20310687 0.6440146 -0.32931429
-0.18647292 0.64470291 -0.32662693
-0.18363793 0.64447141 -0.32705492
-0.17668371 0.64456171 -0.32905576
-0.1723529 0.64422786 -0.32656032
-0.16764614 0.64395261 -0.32647559
-0.16218817 0.64442372 -0.32784772
-0.15729447 0.64398474 -0.32695186
-0.15257677 0.64383185 -0.32741016
-0.14826217 0.64415359 -0.32824638
-0.14279537 0.64407998 -0.3268694
-0.13755615 0.64431256 -0.327252
-0.13183868 0.64450687 -0.32837495
-0.12714802 0.64368039 -0.32821164
-0.12163615 0.64376342 -0.32671413
-0.11727358 0.64324683 -0.32813597
-0.11250383 0.64341033 -0.32753935
-0.10742185 0.64299357 -0.32692143
-0.10256769 0.64270222 -0.32745057
-0.098215103 0.64310038 -0.32781178
-0.092902303 0.64258206 -0.32720804
-0.087416217 0.64311951 -0.32802078
-0.082112551 0.6431039 -0.32654613
-0.076862201 0.64267564 -0.32832843
-0.071906865 0.64374304 -0.32744548
-0.067051351 0.64327615 -0.32805848
-0.062403262 0.64282954 -0.32709989
-0.057559561 0.64264822 -0.32676521
-0.052595139 0.64301616 -0.32775542
-0.04715462 0.64242947 -0.32730326
-0.04265346 0.64227724 -0.32674071
-0.037721127 0.64187503 -0.32675871
-0.032204129 0.64213544 -0.32766277
-0.027274609 0.64224219 -0.32722872
-0.022551233 0.64231157 -0.32757404
-0.017594764 0.64275235 -0.32723072
-0.012690208 0.6423313 -0.32764813
-0.0071766838 0.64336532 -0.32737628
-0.0025787172 0.64316815 -0.32687718
0.002007155 0.64310342 -0.32835984
0.0073098345 0.64343888 -0.32695821
0.012902534 0.64265621 -0.32764801
0.017299948 0.64285409 -0.3284438
0.02221998 0.64303929 -0.32705531
0.027785221 0.64300364 -0.3278949
0.032592822 0.64248687 -0.32739916
0.03728823 0.64220256 -0.32719842
0.043005835 0.6423282 -0.32736877
0.047916163 0.64204311 -0.32714245
0.052007258 0.64232224 -0.32738325
0.057982273 0.64188832 -0.32797655
0.062447809 0.64198202 -0.32725161
0.067555115 0.64211434 -0.32777539
0.073027045 0.64251029 -0.32800236
0.077423036 0.64180493 -0.32746351
0.08242403 0.64160049 -0.32750016
0.087562755 0.6414938 -0.32817435
0.091892943 0.64105988 -0.32807297
0.097650304 0.64094239 -0.32700276
0.10343866 0.6403383 -0.32796043
0.10753594 0.64030838 -0.32792544
0.1109501 0.64140093 -0.32592785
0.11848851 0.64094937 -0.32872504
0.12301208 0.64048624 -0.32752177
0.12724084 0.64058769 -0.32775202
0.13264865 0.64202815 -0.32775331
0.13758309 0.64152306 -0.32731119
0.14242479 0.64177036 -0.32869801
0.14717549 0.6413855 -0.32807598
0.15174817 0.64119911 -0.3264797
0.1578566 0.6414234 -0.32894936
0.16163358 0.64139682 -0.32787082
0.16768789 0.64083451 -0.32600576
0.17109269 0.64053679 -0.32812834
0.17805617 0.64020938 -0.32872313
0.2029634 0.64078969 -0.32743561
0.20759572 0.64071161 -0.32768854
0.21138132 0.64034939 -0.32700583
0.21682246 0.64043301 -0.32690382
0.22238639 0.64056057 -0.32719174
0.22784872 0.64037943 -0.32664052
0.23224752 0.64048862 -0.32702911
0.23814985 0.64054799 -0.32745704
0.24213216 0.64039528 -0.32745111
0.24843648 0.64049184 -0.32830834
0.25081667 0.64090526 -0.32863539
-0.49153689 0.64976561 -0.32843325
-0.48839617 0.64919007 -0.32768935
-0.4803077 0.64966941 -0.32770622
-0.47687751 0.64950103 -0.32703984
-0.47225258 0.64882129 -0.32840204
-0.46749249 0.64958936 -0.32736307
-0.46263757 0.64929086 -0.32742283
-0.45743266 0.64852011 -0.32793626
-0.45168835 0.6483146 -0.32791477
-0.44789174 0.64873135 -0.32821715
-0.44256169 0.6485824 -0.32678351
-0.43822303 0.64864296 -0.32833838
-0.43261167 0.64901948 -0.32738563
-0.42742231 0.64975494 -0.32768524
-0.42287996 0.64870477 -0.32691228
-0.41826802 0.64815408 -0.32743517
-0.41248915 0.64881039 -0.32710317
-0.4091548 0.64682931 -0.32984427
-0.40191311 0.64940131 -0.32740936
-0.3977491 0.64874732 -0.32746178
-0.39248246 0.64893609 -0.32713071
-0.38761628 0.6493451 -0.32838482
-0.38246441 0.64885956 -0.32773489
-0.37783 0.64845127 -0.32667598
-0.37192237 0.64907163 -0.32852867
-0.36694226 0.64842093 -0.32674995
-0.36315414 0.64802647 -0.32702342
-0.35792226 0.64760011 -0.32722822
-0.35228533 0.64767891 -0.32704428
-0.34779766 0.64781755 -0.32788533
-0.34205434 0.64803427 -0.32741067
-0.33830327 0.64789349 -0.32747144
-0.33211777 0.64771646 -0.32695192
-0.32778868 0.64733684 -0.32782415
-0.32211146 0.64683306 -0.32740274
-0.31695387 0.64821357 -0.32831076
-0.31242695 0.64765114 -0.32785928
-0.30704355 0.64752346 -0.32733452
-0.30196166 0.64764792 -0.32818303
-0.29721805 0.64714128 -0.32714504
-0.29218149 0.64649051 -0.32714036
-0.28759533 0.64670545 -0.32795095
-0.28218952 0.64710504 -0.32732826
-0.27757353 0.64662379 -0.32813096
-0.27227524 0.64597619 -0.32630968
-0.26701459 0.64635891 -0.32896876
-0.2623584 0.64615363 -0.32779011
-0.25758258 0.64679468 -0.32785165
-0.25297067 0.64719576 -0.32733342
-0.24744011 0.64666474 -0.32753474
-0.24191278 0.64590633 -0.32785457
-0.23722845 0.64573777 -0.32662293
-0.23264813 0.64519465 -0.32618806
-0.22795142 0.64523619 -0.32866895
-0.22039028 0.64565831 -0.32530686
-0.21753994 0.64544755 -0.32837245
-0.21240261 0.64539516 -0.3266297
-0.20701034 0.64615542 -0.32907838
-0.20205577 0.64625961 -0.32668257
-0.19814231 0.64656436 -0.32806909
-0.19271252 0.64622116 -0.32787666
-0.18732634 0.64563733 -0.32634395
-0.18292093 0.64606082 -0.32880861
-0.17804697 0.64625877 -0.3269757
-0.17269464 0.64577788 -0.32682455
-0.16794118 0.64612037 -0.32819381
-0.16286939 0.64611667 -0.32684359
-0.15784076 0.64578962 -0.32926342
-0.15293464 0.64546359 -0.32764634
-0.14821282 0.64607447 -0.32776073
-0.14292608 0.64640826 -0.32707703
-0.1370275 0.6472618 -0.32829028
-0.13298659 0.64640701 -0.3283518
-0.12837371 0.64568532 -0.32741424
-0.12316214 0.64508426 -0.32789403
-0.10793121 0.64576709 -0.32583258
-0.097120956 0.64514273 -0.32932597
-0.093191743 0.64528179 -0.32690087
-0.079078615 0.64529616 -0.32721359
-0.074150078 0.64556873 -0.32552496
-0.012658117 0.64531517 -0.32822791
0.0026289192 0.64526057 -0.32697469
0.01736803 0.64545166 -0.32652086
0.020069392 0.64511478 -0.32575637
0.033105075 0.64551812 -0.32578447
0.039098103 0.64530349 -0.32898396
0.040912449 0.64507729 -0.3284705
-0.50119829 0.65419042 -0.32863128
-0.49818751 0.65253419 -0.32799068
-0.49259928 0.6516608 -0.3273457
-0.4867557 0.65062821 -0.3270703
-0.48234218 0.65082848 -0.3280775
-0.47723708 0.65108073 -0.32678697
-0.47219691 0.65079284 -0.32737026
-0.46809557 0.65097904 -0.32685956
-0.46324334 0.65074944 -0.32617432
-0.45678169 0.65067089 -0.32821056
-0.44468448 0.65017641 -0.32619479
-0.43727678 0.65170449 -0.32820946
-0.43134719 0.65037352 -0.32679176
-0.42813104 0.65137494 -0.32722148
-0.4240481 0.6508922 -0.32572332
-0.41682172 0.65041983 -0.32845926
-0.41253647 0.65089774 -0.32599515
-0.40742081 0.65122527 -0.32783374
-0.40382251 0.65125793 -0.3272064
-0.39930695 0.65063256 -0.32895324
-0.39257106 0.65024519 -0.32753518
-0.38660556 0.65098393 -0.32733685
-0.3820205 0.65041924 -0.32652634
-0.3764275 0.65062743 -0.32753426
-0.37296996 0.65076655 -0.32743031
-0.36804378 0.65074825 -0.3257618
-0.31841311 0.65015972 -0.32856628
-0.50309443 0.65800732 -0.32748696
-0.50745702 0.66176218 -0.32754511
-0.5046438 0.66200852 -0.32777357
-0.48710525 0.90964353 -0.32669777
-0.48302495 0.90763319 -0.32672569
-0.47861421 0.90845525 -0.32705432
-0.49123132 0.91369849 -0.32735497
-0.48761058 0.91268748 -0.32787538
-0.48222086 0.911533 -0.32866275
-0.47858772 0.91133118 -0.32743672
-0.50598919 0.91950595 -0.32612884
-0.50325751 0.91916537 -0.32535577
-0.49727955 0.91827738 -0.32909134
-0.49309102 0.91690743 -0.3285737
-0.48743272 0.91595066 -0.32717025
-0.5070343 0.92113787 -0.32524198
-0.50234783 0.92169237 -0.32833382
0.29963732 0.62993938 -0.32415035
0.3073118 0.62898248 -0.32197845
0.24766913 0.63417655 -0.32334957
0.25236428 0.63411248 -0.32161024
0.25673628 0.6337775 -0.32286495
0.26251256 0.63412362 -0.32304808
0.26738811 0.63400495 -0.32128301
0.27576625 0.63409543 -0.32466176
0.2847065 0.63455719 -0.3208901
0.28807366 0.63440919 -0.32326639
0.29267401 0.63357604 -0.32394055
0.29801068 0.63330621 -0.32211879
0.30230257 0.63198006 -0.32152715
0.30661494 0.63206071 -0.32148069
-0.036593769 0.63989025 -0.32136473
-0.033610784 0.63917774 -0.32412276
-0.027085438 0.63981915 -0.32323483
-0.017179012 0.6392231 -0.32466409
-0.014515475 0.63889098 -0.3239103
0.037903782 0.63991755 -0.32197675
0.049114812 0.63975012 -0.32142603
0.092885837 0.63976306 -0.3232919
0.096848488 0.63908178 -0.32189262
0.10254472 0.63956803 -0.32245138
0.10770541 0.6391719 -0.32245851
0.11228372 0.63866812 -0.32221809
0.11831819 0.63789743 -0.32258865
0.12274957 0.63832814 -0.32246327
0.12653509 0.63887817 -0.32105052
0.13227931 0.63895643 -0.32252836
0.13641068 0.63973665 -0.3223778
0.14330907 0.63930082 -0.32133809
0.14717856 0.63897461 -0.32272935
0.15321769 0.63918519 -0.32260755
0.15774716 0.63849527 -0.32282105
0.16286354 0.63910437 -0.32293788
0.16719948 0.63893914 -0.32260376
0.1722866 0.63876963 -0.3217656
0.17743491 0.6390478 -0.32270026
0.18249105 0.63782424 -0.32319745
0.18772694 0.63822079 -0.32194769
0.19345994 0.63809431 -0.32361597
0.19790311 0.63799924 -0.32249865
0.20127445 0.63834214 -0.32221445
0.20685963 0.63903928 -0.32260677
0.21300045 0.63948643 -0.32293653
0.21761891 0.63929045 -0.32209465
0.22284389 0.63917279 -0.32330328
0.22720535 0.63898486 -0.32251102
0.23269053 0.63901591 -0.32290566
0.2371604 0.63797337 -0.32237759
0.24270985 0.63838989 -0.32322773
0.24741799 0.6378898 -0.32233241
0.25232852 0.63670856 -0.32157528
0.25717074 0.63550305 -0.32399791
0.26094255 0.63542521 -0.32262146
0.26559576 0.63602215 -0.3203775
0.27227914 0.63610661 -0.32440704
0.27790886 0.63658708 -0.32188264
0.28265584 0.63697052 -0.32272387
0.28758991 0.63741797 -0.32285282
0.29227871 0.63650692 -0.32178301
0.29530379 0.63601673 -0.32101589
0.30107751 0.63699317 -0.32468972
0.31071267 0.63579184 -0.32196295
-0.31714699 0.644669 -0.3249602
-0.27867717 0.64489394 -0.32269493
-0.27275726 0.64483708 -0.32332695
-0.26636845 0.6442703 -0.32141864
-0.26152009 0.64478385 -0.32276094
-0.24975146 0.64422411 -0.32009906
-0.23630276 0.64425522 -0.32403642
-0.23138362 0.6443578 -0.32279146
-0.2267864 0.6439082 -0.3232905
-0.22232357 0.64374685 -0.3221429
-0.21661933 0.64286965 -0.32276693
-0.21217477 0.64370555 -0.32218242
-0.20785506 0.64359415 -0.32186356
-0.20210348 0.64450151 -0.32268825
-0.19682233 0.6442579 -0.32141191
-0.18573748 0.64492673 -0.32197472
-0.18404081 0.64471519 -0.32149455
-0.17264663 0.64453071 -0.32199031
-0.16674122 0.6447385 -0.32418287
-0.16176671 0.64420789 -0.32346162
-0.15654556 0.64451432 -0.32242483
-0.15283726 0.64440054 -0.32322821
-0.14772499 0.64401507 -0.32240215
-0.14137307 0.64380258 -0.32198861
-0.13753112 0.6446414 -0.32244945
-0.13241427 0.64359206 -0.32280955
-0.12764838 0.64352453 -0.32233196
-0.1228431 0.64366269 -0.3218089
-0.11727648 0.64353275 -0.32380441
-0.11251357 0.64347672 -0.32309774
-0.10787346 0.64327097 -0.3222729
-0.10315806 0.64271492 -0.32213727
-0.098083653 0.64298815 -0.32296142
-0.093191139 0.64281839 -0.3217667
-0.087228209 0.64292949 -0.32280758
-0.082430162 0.64302802 -0.3216047
-0.077640243 0.6436944 -0.32321683
-0.072296798 0.64368314 -0.32212994
-0.067336395 0.6432991 -0.32268965
-0.062183883 0.64267987 -0.3227461
-0.057749756 0.64276105 -0.32214791
-0.05260523 0.64292181 -0.32283637
-0.047353614 0.64272785 -0.32276621
-0.04210604 0.64239705 -0.32152387
-0.03714028 0.64181906 -0.3224732
-0.032797161 0.64198309 -0.32314816
-0.028048024 0.64238435 -0.32152969
-0.02261618 0.64266092 -0.32260886
-0.017421134 0.64236081 -0.32242811
-0.013229322 0.64221972 -0.32269248
-0.0077456278 0.64296865 -0.32193765
-0.002601671 0.64314735 -0.32307163
0.0030045211 0.64325589 -0.3223204
0.0074495086 0.6427502 -0.32210845
0.012380008 0.6431008 -0.32338348
0.017486913 0.64276445 -0.32232848
0.02285091 0.64290673 -0.32245001
0.027676757 0.64329129 -0.32344735
0.033134352 0.64244318 -0.32261801
0.038060859 0.6419034 -0.32127777
0.042398587 0.64098287 -0.32204869
0.047180679 0.6411404 -0.32247517
0.052395914 0.64192426 -0.32214519
0.056978405 0.64227581 -0.32271361
0.061474912 0.6421268 -0.32325828
0.067355014 0.64218503 -0.32263446
0.072437659 0.64200437 -0.32253799
0.077438787 0.64181703 -0.32226464
0.082461819 0.64146668 -0.32214037
0.087649375 0.64165419 -0.32312456
0.092775993 0.64152896 -0.32190382
0.097815685 0.64078575 -0.3220039
0.10241599 0.64066941 -0.32299483
0.10702705 0.64104921 -0.32217869
0.11227205 0.64078671 -0.3211242
0.11757866 0.64057446 -0.32405195
0.12107708 0.64013827 -0.32306191
0.12776025 0.64102644 -0.32229114
0.1322124 0.64151764 -0.32255942
0.13779105 0.64168513 -0.32181951
0.14195018 0.64080566 -0.32287183
0.14773718 0.64083833 -0.32297787
0.15201467 0.64026809 -0.32197255
0.157462 0.6416378 -0.32395607
0.16304636 0.64094156 -0.32237571
0.16843686 0.64025986 -0.32180029
0.1718841 0.6401493 -0.3218016
0.17680436 0.64052224 -0.3203207
0.19092789 0.64026308 -0.32215834
0.2031294 0.64037615 -0.32226276
0.20707588 0.64060307 -0.32240307
0.21148226 0.6405347 -0.32269594
0.21782504 0.64052063 -0.32288441
0.22265291 0.64043337 -0.32221472
0.22795972 0.64104563 -0.32204473
0.23224521 0.64113683 -0.32227439
0.23761617 0.64043659 -0.32275373
0.24359787 0.64081532 -0.32149684
-0.49069688 0.64909416 -0.32066932
-0.48227951 0.64989948 -0.32479894
-0.47627282 0.64734912 -0.32248276
-0.47315627 0.64832568 -0.32449675
-0.46713892 0.64883804 -0.32176101
-0.46220011 0.64898705 -0.32186857
-0.45723906 0.64848226 -0.32291025
-0.45250511 0.64784789 -0.32265863
-0.44740051 0.64883691 -0.32264253
-0.44280005 0.64899886 -0.32241094
-0.43736881 0.64871901 -0.32257548
-0.43310672 0.64894211 -0.32195622
-0.4260422 0.64941514 -0.32367426
-0.42187992 0.64850348 -0.32280555
-0.41744986 0.6489653 -0.32236996
-0.41262248 0.64875549 -0.3229084
-0.40742135 0.64884019 -0.32300168
-0.40131047 0.6490947 -0.32186273
-0.39787254 0.64912367 -0.32241824
-0.3922545 0.64910394 -0.32284972
-0.3877075 0.64943314 -0.32314134
-0.38232106 0.6490829 -0.32242876
-0.37785134 0.64942664 -0.32333231
-0.37244686 0.64888018 -0.3225629
-0.36770025 0.64877719 -0.32206249
-0.36259353 0.64831382 -0.32221296
-0.35702896 0.64758241 -0.32242271
-0.35239804 0.64733928 -0.32315314
-0.34758011 0.64744866 -0.3219417
-0.34182364 0.64801723 -0.32189432
-0.33742541 0.64744705 -0.32206938
-0.33238435 0.64744323 -0.32266945
-0.32740483 0.64721203 -0.32250991
-0.32204276 0.64759761 -0.32267427
-0.31751335 0.64796597 -0.32291579
-0.31175092 0.64696056 -0.32210889
-0.30728069 0.64672965 -0.32176438
-0.30247569 0.6479966 -0.32356364
-0.29782751 0.64782512 -0.32269433
-0.29246432 0.64775342 -0.32283121
-0.28736705 0.64714551 -0.32219359
-0.28260097 0.64698488 -0.3226648
-0.27802572 0.6465022 -0.32279852
-0.27302247 0.64658231 -0.32238191
-0.26798955 0.64580971 -0.32241499
-0.26211226 0.64645004 -0.32179072
-0.25698838 0.64665586 -0.32265338
-0.25281471 0.6471284 -0.322981
-0.24738665 0.64735937 -0.32212719
-0.24334721 0.64662623 -0.32317388
-0.23811518 0.64569336 -0.32215112
-0.23301747 0.64538848 -0.32249415
-0.22700663 0.64574587 -0.32265615
-0.22273414 0.6452834 -0.32118049
-0.21677081 0.64555436 -0.32400903
-0.21177834 0.64651394 -0.32184839
-0.20784368 0.6459744 -0.32298824
-0.2027863 0.64624727 -0.32258826
-0.19742458 0.64619493 -0.32213455
-0.19196829 0.64627415 -0.3225593
-0.18736868 0.64619696 -0.32247293
-0.18290363 0.64655679 -0.32299429
-0.17752244 0.6463955 -0.32163504
-0.17275955 0.64685643 -0.32342803
-0.16743892 0.64664334 -0.32322726
-0.16267318 0.6462822 -0.32183221
-0.15851445 0.64531195 -0.32258144
-0.15112363 0.64573812 -0.32142848
-0.14797281 0.64545071 -0.32133961
-0.14261323 0.64672786 -0.32271978
-0.13777499 0.64682508 -0.32233217
-0.13304594 0.64552444 -0.32280666
-0.12916663 0.64516687 -0.32280967
-0.12053464 0.64613599 -0.32407102
-0.11880267 0.64592004 -0.32358089
-0.11275142 0.64531851 -0.32191354
-0.10660286 0.64611566 -0.32121044
-0.10278931 0.64524508 -0.32195863
-0.098820642 0.64562517 -0.32220113
-0.091444582 0.64507127 -0.32289734
-0.089279808 0.64540917 -0.3244679
-0.077828772 0.64559877 -0.32255149
-0.07352832 0.64516002 -0.32071626
-0.068703137 0.64538461 -0.32350728
-0.027071165 0.64553493 -0.32066259
-0.00052955939 0.64509964 -0.32299051
0.014158539 0.64530247 -0.32254663
0.016783521 0.64571488 -0.32122117
0.022637667 0.64627957 -0.32385999
0.027590178 0.64566207 -0.32245845
0.030741764 0.6452691 -0.32156655
-0.50063992 0.6541189 -0.32221064
-0.49747378 0.65150398 -0.32175335
-0.49277124 0.65080756 -0.32250243
-0.48677859 0.65067005 -0.32228318
-0.48251233 0.65151048 -0.32273307
-0.47765598 0.65160865 -0.32209516
-0.47298977 0.6516661 -0.32350865
-0.46818107 0.65155494 -0.32210708
-0.46288076 0.65055203 -0.32207245
-0.45815369 0.65002596 -0.32347518
-0.44676593 0.65017331 -0.32300434
-0.44005448 0.65090382 -0.32385695
-0.43684325 0.65127081 -0.32050467
-0.4318049 0.65154588 -0.32299319
-0.42702165 0.65137249 -0.32223013
-0.42237198 0.65052336 -0.32216927
-0.41691685 0.65071583 -0.32315752
-0.41217887 0.6505627 -0.32147196
-0.40740624 0.65103555 -0.32265463
-0.4024165 0.6512329 -0.321652
-0.39705139 0.65034229 -0.32145986
-0.39382282 0.65017951 -0.32354042
-0.38785365 0.65076107 -0.32161012
-0.38292351 0.65043861 -0.3223764
-0.37694734 0.65116322 -0.32304108
-0.37282988 0.65049589 -0.32198906
-0.36914378 0.65019631 -0.32152906
-0.51222301 0.6581769 -0.3217217
-0.50666416 0.65795892 -0.32176751
-0.50284928 0.65731645 -0.32281238
-0.50787306 0.66227382 -0.32281622
-0.48376891 0.90647781 -0.32260412
-0.47822842 0.90791267 -0.32201958
-0.49096915 0.91463006 -0.3242434
-0.48765263 0.91318911 -0.3235825
-0.48263288 0.91201395 -0.32312602
-0.47865695 0.9108426 -0.32253298
-0.50143641 0.91893834 -0.3248404
-0.49735594 0.91789329 -0.324108
-0.49255198 0.91660208 -0.32329369
-0.48718837 0.9156602 -0.32199082
-0.50532091 0.92212552 -0.32381099
-0.50277132 0.92180759 -0.32308945
-0.4990215 0.92013878 -0.32297435
-0.50568426 0.92622513 -0.32072073
-0.50379586 0.92523885 -0.32077762
0.29837236 0.62970036 -0.31950584
0.24333656 0.63480675 -0.31918991
0.25886279 0.63486618 -0.31853938
0.26218209 0.63445234 -0.31760004
0.26834658 0.63368374 -0.31585547
0.27208138 0.63364398 -0.3197782
0.28853029 0.63408041 -0.31980795
0.29279673 0.6339426 -0.31829014
0.29804263 0.63341987 -0.31670207
0.301934 0.63302708 -0.31794399
0.3074289 0.63232857 -0.31841272
0.31065273 0.63410294 -0.31667212
-0.036974177 0.63998103 -0.31566799
-0.015097933 0.63986331 -0.31805161
0.042284392 0.63980591 -0.31590503
0.051125459 0.63987666 -0.31884319
0.064147867 0.639965 -0.31962016
0.087487362 0.63962889 -0.31757343
0.090646327 0.63939792 -0.31930009
0.097605012 0.63969177 -0.31733549
0.10304977 0.63977093 -0.31844962
0.10775279 0.6388638 -0.31708032
0.11232845 0.63842189 -0.3179802
0.1174585 0.63818294 -0.31780738
0.12282161 0.63842618 -0.317422
0.12752464 0.6389485 -0.31767476
0.13135815 0.63872635 -0.3177675
0.13781345 0.63946277 -0.31845149
0.1425513 0.63919735 -0.31633058
0.14761102 0.63902366 -0.31827971
0.15212986 0.63964665 -0.31761345
0.15746574 0.63871181 -0.31731814
0.16275382 0.63871187 -0.31792054
0.1678603 0.63933122 -0.3172223
0.17252868 0.63954335 -0.31747884
0.17750405 0.63842469 -0.31782708
0.18292931 0.63805515 -0.31706834
0.18727145 0.63805467 -0.31728104
0.1928713 0.63819396 -0.31779727
0.19767937 0.63807285 -0.31725371
0.20221186 0.6385721 -0.31750938
0.20823605 0.63844603 -0.31749165
0.21305077 0.63847059 -0.31625268
0.21723305 0.63913345 -0.31739995
0.22291276 0.63937783 -0.31844327
0.22748911 0.63890833 -0.31781667
0.23276076 0.63764703 -0.31701726
0.23718244 0.63835907 -0.31765243
0.24248457 0.63772017 -0.31800687
0.24750394 0.63778043 -0.31669062
0.25251254 0.6381827 -0.31764033
0.25643983 0.63664609 -0.31816021
0.26297277 0.63611329 -0.31599054
0.26813599 0.63579381 -0.31826025
0.27325106 0.63637567 -0.31718093
0.27687597 0.63618523 -0.31594905
0.28296828 0.63757652 -0.31917474
0.2872169 0.63704675 -0.31797233
0.29169708 0.63687384 -0.31684366
0.29725143 0.63699907 -0.31831858
0.30290738 0.63585973 -0.31824109
0.30738416 0.63530153 -0.31697416
-0.45746708 0.64395738 -0.31587777
-0.34513697 0.64479166 -0.31755501
-0.26284808 0.64424956 -0.31644762
-0.25737548 0.64472818 -0.31716058
-0.25209615 0.64385813 -0.318398
-0.23791656 0.64496291 -0.31683576
-0.23288517 0.64442694 -0.31754538
-0.22791497 0.64378399 -0.3188529
-0.22221811 0.64350885 -0.31762668
-0.21777837 0.64421815 -0.31790912
-0.21376288 0.64290643 -0.31799471
-0.20803225 0.64384508 -0.31640834
-0.2035756 0.64385211 -0.31789786
-0.19861124 0.64433211 -0.31804919
-0.19124895 0.64489526 -0.31719089
-0.18906085 0.6446836 -0.31811792
-0.16210437 0.64447522 -0.31722179
-0.15704709 0.64410532 -0.3173357
-0.15276508 0.64434719 -0.31893209
-0.1469619 0.64389932 -0.31715953
-0.14143118 0.64363426 -0.31735319
-0.13781771 0.64423978 -0.3186143
-0.13268025 0.64376658 -0.31638563
-0.12735213 0.64341712 -0.31772867
-0.12191619 0.64368325 -0.31660125
-0.1173776 0.64296126 -0.31729722
-0.11245453 0.64253742 -0.31743962
-0.10654237 0.64252084 -0.31672654
-0.10216154 0.64353293 -0.31765127
-0.097910367 0.64325678 -0.31810948
-0.092684351 0.6438123 -0.31757981
-0.087815545 0.64293766 -0.31791064
-0.082730889 0.64311081 -0.31696802
-0.077497177 0.6437242 -0.31826636
-0.072376885 0.64321762 -0.31703597
-0.067718357 0.64303416 -0.31646678
-0.062514767 0.64311105 -0.31843042
-0.057808846 0.64305776 -0.31733301
-0.052875195 0.64293998 -0.31761593
-0.047778282 0.64249223 -0.31732577
-0.042514253 0.64213401 -0.31726268
-0.037905183 0.64208591 -0.31791681
-0.032898523 0.64238894 -0.31788632
-0.027666951 0.64235413 -0.31668591
-0.021949202 0.64288276 -0.31763768
-0.017203044 0.64235461 -0.31746504
-0.012442874 0.6430378 -0.31695244
-0.0080252802 0.64316529 -0.31796074
-0.00228245 0.64309502 -0.3175585
0.0028198815 0.64293462 -0.31768909
0.00749001 0.64284933 -0.31696135
0.012127733 0.64289355 -0.31842011
0.016730247 0.64259571 -0.31717205
0.023226833 0.64210069 -0.31765968
0.028059119 0.64284515 -0.31849113
0.032375 0.64275217 -0.31716576
0.037239086 0.64155966 -0.3168126
0.042566787 0.64138758 -0.31733835
0.047509756 0.64165992 -0.31741443
0.05189332 0.64209449 -0.31726339
0.057309605 0.64255887 -0.31793705
0.061998904 0.64205045 -0.31723982
0.067477889 0.64218992 -0.31811202
0.072539099 0.64261091 -0.31757137
0.077012479 0.64187098 -0.31764728
0.082548022 0.64113444 -0.31625628
0.087495215 0.64158982 -0.31770957
0.092211984 0.64144266 -0.31716529
0.097268447 0.6409871 -0.31695873
0.10214357 0.64088458 -0.31748515
0.10762864 0.64112437 -0.3168008
0.11212958 0.64024407 -0.3157593
0.1174682 0.64059317 -0.31876439
0.1230004 0.64085072 -0.31632611
0.12825133 0.64118266 -0.31749809
0.13302331 0.64171153 -0.31711182
0.13721906 0.64160478 -0.31641802
0.14143649 0.64072961 -0.31792989
0.14750856 0.64032447 -0.31762537
0.15169434 0.64048797 -0.31721735
0.15627488 0.64058125 -0.31618974
0.16255817 0.64090204 -0.31727791
0.1658382 0.64011079 -0.31665078
0.17362653 0.64035332 -0.31647158
0.17698435 0.64068586 -0.31762561
0.18917751 0.64108574 -0.31792337
0.19190851 0.64115298 -0.3169837
0.19580704 0.64051056 -0.3163065
0.20328324 0.64048511 -0.31727731
0.20575532 0.64081174 -0.31726146
0.21271332 0.64017951 -0.31785786
0.21707478 0.64049947 -0.31700885
0.22291572 0.64130753 -0.31682092
0.22755401 0.64213413 -0.31787246
0.2323859 0.64136928 -0.31746185
0.23699453 0.6409387 -0.31687894
0.24171261 0.64043176 -0.31741673
0.24996671 0.64011896 -0.31594002
0.25324208 0.6404314 -0.31634846
0.25651139 0.6407429 -0.31675252
-0.49562111 0.64993751 -0.31922475
-0.49208128 0.64949626 -0.31822297
-0.48865205 0.64906859 -0.31725249
-0.48080111 0.64860278 -0.31820923
-0.47862563 0.64938641 -0.31828231
-0.47239631 0.64854282 -0.31730592
-0.46597117 0.64855611 -0.31724417
-0.46182621 0.64909601 -0.31736755
-0.45716807 0.64874047 -0.31721956
-0.45259872 0.64830756 -0.31822899
-0.44725847 0.6495468 -0.31720787
-0.44263369 0.64890081 -0.31765977
-0.43739074 0.64869136 -0.31752089
-0.43385544 0.64875335 -0.31720814
-0.42126286 0.64933348 -0.31797761
-0.41736034 0.64936024 -0.31704643
-0.41344717 0.64856249 -0.31773782
-0.40803763 0.64916706 -0.31621414
-0.40301308 0.6489625 -0.31858712
-0.39716884 0.64894336 -0.31613871
-0.39275491 0.64954484 -0.31810471
-0.38607746 0.647609 -0.31905711
-0.38243714 0.64965457 -0.31873798
-0.37772068 0.64864177 -0.31729695
-0.37249792 0.6493004 -0.3173483
-0.36727113 0.64859331 -0.31760418
-0.3619563 0.64811474 -0.31693527
-0.35783085 0.6470564 -0.317678
-0.35186663 0.64698523 -0.31732062
-0.34762406 0.64787734 -0.31785724
-0.34325179 0.64803535 -0.31836566
-0.3378616 0.64858282 -0.3171317
-0.33317408 0.64765918 -0.31826875
-0.32742169 0.6476174 -0.316816
-0.32272619 0.64792931 -0.31758699
-0.31682813 0.64758271 -0.31695276
-0.31218487 0.64673829 -0.31691346
-0.30792755 0.64670622 -0.31764323
-0.30257505 0.64766186 -0.3173877
-0.29745752 0.64788103 -0.31687987
-0.29294199 0.64810771 -0.31810573
-0.28774944 0.64805096 -0.31818742
-0.28291193 0.64741755 -0.31752542
-0.27746534 0.6471349 -0.31739557
-0.27253902 0.64724863 -0.31750679
-0.26768759 0.64651698 -0.31678125
-0.26310542 0.646622 -0.3180078
-0.25769877 0.64641798 -0.31768528
-0.25275943 0.64605236 -0.31712499
-0.24691765 0.64707637 -0.3156856
-0.24242105 0.64666528 -0.31877917
-0.23751654 0.64606547 -0.31782416
-0.23239502 0.64620084 -0.31725532
-0.22807911 0.64623564 -0.31821612
-0.22315642 0.64581561 -0.31729847
-0.21769628 0.64599729 -0.31770128
-0.21217993 0.64604306 -0.31655893
-0.20691174 0.64602453 -0.31839854
