# .PCD v0.7 - Point Cloud Data file format
VERSION 0.7
FIELDS x y z
SIZE 4 4 4
TYPE F F F
COUNT 1 1 1
WIDTH 1396
HEIGHT 1
VIEWPOINT 0 0 0 1 0 0 0
POINTS 1396
DATA ascii
-0.82306266 1.0495963 -0.39897844
-0.82765913 1.0507041 -0.39559984
-0.82272106 1.0519166 -0.3964096
-0.83017039 1.0594586 -0.39865085
-0.82749903 1.0598692 -0.3993769
-0.83256692 1.0609148 -0.39585808
-0.82849121 1.0619973 -0.39643037
-0.835208 1.0690851 -0.39792928
-0.83252311 1.0694978 -0.39865899
-0.8298384 1.0699104 -0.39938864
-0.83291817 1.0712707 -0.39639935
-0.82875288 1.0728278 -0.39645529
-0.8350141 1.0838782 -0.39511609
-0.83245301 1.0833497 -0.39689431
-0.82911283 1.0836326 -0.39807263
-0.82672918 1.086381 -0.3959249
-0.83530283 1.0949916 -0.3964034
-0.83178103 1.0936785 -0.39953706
-0.83258784 1.0954088 -0.39714131
-0.84273255 1.1043237 -0.39655277
-0.83853275 1.1038502 -0.39900735
-0.84098208 1.1053386 -0.39615303
-0.84762067 1.1137249 -0.39776987
-0.84418911 1.1142523 -0.3987025
-0.84775013 1.1155801 -0.39553398
-0.84983611 1.124718 -0.39832759
-0.84780645 1.1262867 -0.39740399
-0.8526268 1.136158 -0.39809987
-0.85615414 1.1476886 -0.39743355
-0.86153746 1.1598533 -0.39679009
-0.85901874 1.158323 -0.39972517
-0.8585856 1.1612659 -0.39646706
-0.86176002 1.1694863 -0.39984494
-0.86135352 1.1722478 -0.39678764
-0.85864705 1.1718925 -0.39842829
-0.86789477 1.1816171 -0.39890146
-0.86488014 1.1832441 -0.3983551
-0.8768152 1.1937883 -0.39665145
-0.8732689 1.1934973 -0.3985965
-0.87223709 1.1964425 -0.39560604
-0.88048369 1.2037095 -0.39941671
-0.88018817 1.2057171 -0.39719394
-0.87701958 1.2081662 -0.39575198
-0.87316865 1.2070763 -0.39877269
-0.88062733 1.2181658 -0.398453
-0.87773752 1.2186098 -0.39923841
-0.88033003 1.220185 -0.39621723
-0.87744033 1.2206292 -0.39700264
-0.87359744 1.2220657 -0.39705426
-0.88068998 1.2327262 -0.39740366
-0.87778336 1.233173 -0.39819357
-0.8748768 1.2336197 -0.39898354
-0.90155333 0.86380231 -0.39355195
-0.90130031 0.86552113 -0.39164895
-0.89785206 0.86717111 -0.39127162
-0.8923189 0.86774141 -0.39310402
-0.88792896 0.86925614 -0.39331126
-0.86086291 0.8696267 -0.39386642
-0.89095551 0.87047094 -0.39051688
-0.88726604 0.8710379 -0.39151964
-0.88228339 0.87222373 -0.39238086
-0.8771432 0.87331378 -0.39342579
-0.86550689 0.87058485 -0.39064193
-0.86112857 0.8718847 -0.39109597
-0.85713357 0.87220621 -0.3925252
-0.85191751 0.87350953 -0.39335412
-0.84811962 0.87492913 -0.39340508
-0.85153973 0.87607539 -0.39051327
-0.8462047 0.87656099 -0.39235565
-0.84232843 0.87769997 -0.39277136
-0.83782434 0.87985516 -0.39227852
-0.8355822 0.88115513 -0.39176652
-0.83138591 0.88180006 -0.39290702
-0.82802272 0.88375008 -0.39213905
-0.82288504 0.8838231 -0.39437634
-0.83532447 0.88910055 -0.39380568
-0.83286476 0.88947856 -0.39447421
-0.82508117 0.88515747 -0.39181715
-0.82173336 0.8862294 -0.39207292
-0.8171196 0.88777441 -0.39234567
-0.81136584 0.88893735 -0.39358234
-0.8076939 0.88950169 -0.3945803
-0.79679722 0.88511896 -0.39179659
-0.79436278 0.88549316 -0.39245823
-0.78930598 0.88751733 -0.39236888
-0.78437442 0.88869095 -0.39322129
-0.81396985 0.89020908 -0.39091229
-0.8090741 0.89096153 -0.39224288
-0.80278927 0.89234531 -0.39346036
-0.79862255 0.89423966 -0.39312103
-0.79495072 0.894804 -0.39411896
-0.78655845 0.89001805 -0.39067614
-0.78412402 0.89039218 -0.39133778
-0.79714674 0.89613837 -0.39155978
-0.7923013 0.89654875 -0.39326915
-0.78817862 0.89814359 -0.39326125
-0.78480655 0.89870375 -0.39412868
-0.78685147 0.90106446 -0.39043313
-0.78276294 0.90097636 -0.39238536
-0.77840376 0.90292013 -0.39207494
-0.77166033 0.90674305 -0.3906371
-0.77278513 0.91383171 -0.39305669
-0.77253211 0.91555059 -0.39115369
-0.77608699 0.92230582 -0.3928656
-0.77166653 0.92361826 -0.39332399
-0.76867265 0.9234454 -0.39488071
-0.77063555 0.92651963 -0.39038476
-0.76841837 0.92517239 -0.39296857
-0.77309781 0.93221903 -0.39383003
-0.77265078 0.93525571 -0.39046794
-0.33008018 0.93543118 -0.3943398
-0.32864812 0.93759626 -0.3924461
-0.77675974 0.94343805 -0.39186138
-0.77314317 0.94314122 -0.39384499
-0.34808025 0.94470847 -0.39362168
-0.34393507 0.9440006 -0.39112866
-0.33791292 0.94353133 -0.39302561
-0.33079451 0.94343013 -0.3942697
-0.31547338 0.94390017 -0.39100438
-0.31205606 0.9444254 -0.39193314
-0.78035897 0.94945669 -0.39441785
-0.34598181 0.94629425 -0.39105964
-0.34254858 0.94708526 -0.39329848
-0.33856481 0.9462105 -0.39119124
-0.33316666 0.94747066 -0.39223304
-0.32770997 0.94581437 -0.39286599
-0.32262874 0.94825751 -0.39229605
-0.31068256 0.9461925 -0.39048013
0.18819338 0.94795245 -0.39257398
0.19159958 0.94701922 -0.39104748
-0.33722535 0.95195407 -0.39260527
-0.3331303 0.95359331 -0.39253294
-0.32675678 0.95434844 -0.39452851
-0.31662214 0.95107841 -0.39170107
-0.31318969 0.95160598 -0.39263394
0.19346574 0.95345134 -0.3924278
-0.79034531 0.95939898 -0.39108792
-0.78782344 0.95978659 -0.39177331
-0.33227032 0.95507199 -0.39118621
-0.3272348 0.95682776 -0.39140239
-0.32222885 0.95838261 -0.39184102
0.18840976 0.95738322 -0.39028716
0.1932627 0.95689464 -0.39232087
0.19641474 0.95790446 -0.39258897
0.20278482 0.95861638 -0.39275056
0.20642409 0.95880175 -0.39417857
-0.32639953 0.96418285 -0.39278865
-0.32293433 0.96471536 -0.39373043
0.18907361 0.9625321 -0.39397749
0.19279933 0.9615413 -0.39226344
0.19514477 0.9614954 -0.39032611
0.20861796 0.96007377 -0.39367756
0.21067105 0.96038932 -0.39423555
-0.79556459 0.9684158 -0.39099979
-0.79322493 0.96747673 -0.39315999
-0.35124242 0.96986645 -0.39269158
-0.34756905 0.96864915 -0.39135858
-0.34389564 0.96743184 -0.39002562
-0.32577688 0.96585643 -0.39110598
-0.32115656 0.96656644 -0.3923617
-0.31807637 0.96703982 -0.39319882
0.19285318 0.96894258 -0.39312997
0.19632807 0.96713811 -0.39283887
-0.79800338 0.97385085 -0.39476591
-0.35101369 0.97100747 -0.39080134
-0.34535554 0.97164547 -0.39295262
-0.32661241 0.97377884 -0.39267746
0.18813884 0.97295368 -0.39120379
0.19137381 0.97073889 -0.39172715
-0.79754484 0.97696561 -0.39131737
-0.35226926 0.97637886 -0.3918342
0.1839796 0.97580123 -0.39053094
0.192747 0.97740734 -0.39453813
0.19553407 0.97549921 -0.39498898
-0.34721595 0.98160183 -0.39364529
-0.32048637 0.98381466 -0.39330941
0.18512973 0.98157251 -0.39486516
-0.80026668 0.98585862 -0.39250386
-0.79767978 0.98643112 -0.39300168
0.17435339 0.98842537 -0.39390153
0.1767685 0.98729688 -0.39351255
-0.8055414 0.99432009 -0.39304253
-0.80296749 0.99471569 -0.39374208
-0.80527663 0.99611872 -0.39105117
-0.8108356 1.0026495 -0.39372736
-0.80746835 1.0040506 -0.39360544
-0.81043637 1.0053616 -0.39072463
-0.80698657 1.0058918 -0.39166224
-0.81130391 1.0135429 -0.39358494
-0.81103641 1.0153604 -0.39157271
-0.81563699 1.0239065 -0.39231676
-0.8131572 1.0233948 -0.39403856
-0.82148492 1.0338092 -0.39251137
-0.81899083 1.0332946 -0.39424312
-0.81844985 1.0369694 -0.39017454
-0.82320648 1.0436708 -0.39301342
-0.8210274 1.0459396 -0.39133573
-0.82702792 1.0535223 -0.39257738
-0.82370764 1.0540328 -0.39347976
-0.82210624 1.056093 -0.39178562
-0.83255422 1.0639576 -0.39229244
-0.82962084 1.0631921 -0.3945173
-0.82916284 1.0663035 -0.39107269
-0.83197075 1.0732501 -0.39450461
-0.8315565 1.0760643 -0.39138883
-0.82887167 1.0764771 -0.39211854
-0.83311212 1.0870204 -0.39228806
-0.82919765 1.0875382 -0.39345035
-0.82878101 1.0903683 -0.39031702
-0.84017432 1.0979515 -0.39072645
-0.83674037 1.0972431 -0.39311069
-0.83474422 1.0987861 -0.39220223
-0.84644246 1.1044993 -0.39466903
-0.84602118 1.1073611 -0.39150065
-0.84331906 1.10759 -0.39245388
-0.85176605 1.1174629 -0.39150822
-0.84760106 1.1184155 -0.3922734
-0.85202855 1.1281515 -0.39330602
-0.84816402 1.1287456 -0.39435634
-0.8477664 1.1314461 -0.39136639
-0.85212725 1.1395524 -0.39434201
-0.85228252 1.1421824 -0.39118478
-0.85745025 1.1521182 -0.39164826
-0.85465962 1.1525471 -0.39240673
-0.86110425 1.1627961 -0.39353198
-0.85815233 1.1642087 -0.39320892
-0.85786361 1.1661704 -0.39103687
-0.86371148 1.1749698 -0.39252651
-0.86342114 1.1769421 -0.39034277
-0.8702668 1.1843555 -0.39461493
-0.86997479 1.1863396 -0.39241821
-0.8762275 1.19778 -0.39223185
-0.87194324 1.1984384 -0.39339626
-0.87136382 1.2004784 -0.39126411
-0.87974483 1.2087286 -0.39385977
-0.8769657 1.2112582 -0.39214751
-0.87365407 1.211954 -0.3928282
-0.88003278 1.2222044 -0.39398146
-0.87790805 1.2238469 -0.39301455
-0.87654847 1.2266873 -0.39029533
-0.88009202 1.2367885 -0.39290607
-0.87979293 1.2388198 -0.39065731
-0.88651836 1.2464925 -0.3946794
-0.90087861 0.86838579 -0.38847727
-0.89710474 0.86952585 -0.38884565
-0.88509023 0.86757505 -0.38531959
-0.87162668 0.86964428 -0.38897872
-0.90054119 0.87067759 -0.38593993
-0.89678842 0.87167442 -0.38646689
-0.89283651 0.87130177 -0.38869116
-0.88798976 0.87428659 -0.38737938
-0.87627065 0.87060249 -0.38575417
-0.8717829 0.87129229 -0.38697392
-0.86711806 0.87284511 -0.3872605
-0.86182338 0.87393755 -0.38837251
-0.8623035 0.87609291 -0.38562554
-0.85747963 0.87635666 -0.38749731
-0.85294652 0.87812805 -0.38746774
-0.84761602 0.87835026 -0.38961732
-0.84956032 0.88139522 -0.3851642
-0.84002048 0.88118953 -0.38971928
-0.83854473 0.88308823 -0.38815802
-0.83364886 0.88384074 -0.38948864
-0.80653512 0.88362235 -0.38915002
-0.8330515 0.88627321 -0.38690367
-0.82824939 0.88801444 -0.38703141
-0.82356435 0.88849568 -0.38858503
-0.81968176 0.88933122 -0.38935992
-0.80603427 0.88702476 -0.38538301
-0.8019768 0.88764834 -0.38648576
-0.797997 0.88909143 -0.38659161
-0.79386193 0.88889557 -0.38869122
-0.82310164 0.89047742 -0.38646808
-0.81820589 0.89122987 -0.38779867
-0.81453401 0.8917942 -0.3887966
-0.7960459 0.89022261 -0.38614607
-0.79166037 0.89172804 -0.3863622
-0.78776407 0.89260399 -0.3870959
-0.78374833 0.89294398 -0.38851252
-0.78580713 0.89512169 -0.38502562
-0.78256118 0.89562058 -0.38590783
-0.77752531 0.89750302 -0.38597545
-0.78659964 0.90277505 -0.38853922
-0.77312446 0.90763259 -0.38893092
-0.76896065 0.90882987 -0.38940853
-0.77115667 0.91016424 -0.38684928
-0.7686249 0.91111064 -0.38688332
-0.77199495 0.918033 -0.3884829
-0.76833647 0.91955525 -0.38835043
-0.77136302 0.92077005 -0.38555607
-0.76808345 0.92127407 -0.3864474
-0.77525163 0.92798042 -0.386583
-0.77172101 0.92852312 -0.38754255
-0.76752853 0.93121701 -0.38627622
-0.77282453 0.93819696 -0.38693711
-0.35012594 0.94463575 -0.38754198
-0.34802315 0.94404507 -0.38662124
-0.34211531 0.94387591 -0.38777357
-0.33769476 0.94305116 -0.38720286
-0.33142096 0.94144917 -0.38667014
-0.32914272 0.94179928 -0.38728935
-0.32230806 0.94284976 -0.38914686
0.19118699 0.94222289 -0.38661867
-0.77753723 0.94644469 -0.38798088
-0.34661365 0.94881666 -0.3862662
-0.34282169 0.9468081 -0.38735178
-0.33699328 0.94678819 -0.38760632
-0.33324665 0.9473545 -0.3875702
-0.32869461 0.94883227 -0.38887864
-0.31523901 0.94549221 -0.38924178
-0.3129608 0.94584233 -0.38986096
0.18918227 0.9491896 -0.38989097
0.19185668 0.94873285 -0.38828251
-0.78272033 0.95423335 -0.38774359
-0.34400728 0.95169717 -0.38984019
-0.33687043 0.95436502 -0.389936
-0.33114302 0.95119101 -0.385003
-0.32711825 0.95118445 -0.38683063
-0.32331339 0.95204705 -0.38753858
-0.31873912 0.95340997 -0.38800725
0.18729638 0.95185506 -0.38754472
0.19179492 0.95014954 -0.38623136
0.19518769 0.95481348 -0.38830829
-0.78434354 0.95569712 -0.38529158
-0.34815112 0.95562404 -0.38540703
-0.33663383 0.95597231 -0.38815647
-0.33356711 0.95644367 -0.38898998
-0.32796365 0.95887578 -0.38866907
-0.3248969 0.95934707 -0.38950253
0.19243929 0.95669508 -0.38786367
0.19902697 0.95509022 -0.38554883
0.20332316 0.95714587 -0.3850787
0.20740919 0.95777386 -0.38618919
0.21160027 0.95911568 -0.38650936
-0.79008591 0.96116132 -0.38913688
-0.78972262 0.96362841 -0.38640529
-0.34712121 0.96165192 -0.38747877
-0.34443486 0.96415603 -0.38741538
-0.32747623 0.96091431 -0.38649672
-0.32402611 0.96144456 -0.38743445
0.1931195 0.9640705 -0.3882333
0.19719049 0.96256465 -0.38698879
0.21374837 0.96014351 -0.38627431
-0.34711975 0.96590799 -0.38710907
-0.34273368 0.96888554 -0.38687307
-0.32692087 0.96831024 -0.38770854
-0.32468995 0.96812713 -0.38893217
0.19158497 0.96635914 -0.38614631
0.19636343 0.96941185 -0.38943163
0.20523427 0.96647215 -0.38621262
-0.79521692 0.97077799 -0.38838446
-0.79314148 0.9722513 -0.38759357
-0.35162669 0.9722923 -0.38941735
-0.34809145 0.97168857 -0.38729116
-0.32660401 0.97046262 -0.38532546
-0.32429388 0.97081769 -0.38595331
0.18262856 0.97214431 -0.38521227
0.18708713 0.97190499 -0.38770795
0.19163084 0.97306979 -0.38804552
-0.79721731 0.97919053 -0.38885412
-0.79467028 0.97958195 -0.38954636
0.18323945 0.9773525 -0.38885984
0.18667732 0.97562551 -0.38848519
-0.79695529 0.98097038 -0.38688353
-0.79414624 0.98314172 -0.38560519
0.17492098 0.9830476 -0.38751414
0.17769381 0.98114926 -0.38796273
-0.79984522 0.98872149 -0.38933426
-0.80214226 0.99011725 -0.38665739
-0.79958183 0.99051076 -0.38735327
-0.80663955 0.99825323 -0.38792962
-0.80474705 0.99971604 -0.38706836
-0.80448228 1.0015147 -0.38507697
-0.81017029 1.0071696 -0.38872284
-0.80850166 1.0086884 -0.38769481
-0.80705053 1.0111834 -0.38542247
-0.81215227 1.0178534 -0.38814217
-0.81218433 1.0205128 -0.38500604
-0.81523353 1.0266467 -0.38928288
-0.81496459 1.0284736 -0.38726029
-0.81469566 1.0303005 -0.38523769
-0.82094407 1.0374839 -0.38844278
-0.81817937 1.0388068 -0.38814026
-0.82053828 1.04024 -0.38539135
-0.82601398 1.0471586 -0.38765001
-0.82339829 1.0473802 -0.38857275
-0.82299048 1.0501504 -0.38550574
-0.83112991 1.0565203 -0.38720387
-0.82760334 1.0569615 -0.3882806
-0.83200634 1.0672565 -0.38866824
-0.82812858 1.068895 -0.38849843
-0.83119291 1.0702486 -0.38552412
-0.82852161 1.0706592 -0.38625014
-0.83271587 1.0783747 -0.38815281
-0.82845736 1.0792911 -0.38900271
-0.8322084 1.0805483 -0.385831
-0.82818121 1.0811672 -0.38692555
-0.83283091 1.0897459 -0.38921636
-0.83750314 1.0908718 -0.38578218
-0.83390319 1.0914252 -0.38676056
-0.84532511 1.0990143 -0.38715008
-0.84261012 1.0994315 -0.38788798
-0.83989501 1.0998489 -0.38862586
-0.8450458 1.1009116 -0.38504952
-0.84233081 1.1013288 -0.38578737
-0.84847045 1.1088493 -0.38864633
-0.84636945 1.1110369 -0.38702869
-0.84286964 1.1106424 -0.38907421
-0.84717369 1.1221459 -0.38808811
-0.84523988 1.1253408 -0.38521254
-0.85117668 1.1339386 -0.38689896
-0.84855819 1.1333983 -0.38871703
-0.84813225 1.1362917 -0.38551351
-0.85418892 1.1439745 -0.38821918
-0.85115641 1.1461468 -0.38704091
-0.85716313 1.1540684 -0.38948923
-0.85673255 1.1569934 -0.38625059
-0.85394186 1.1574223 -0.38700902
-0.86009347 1.1696627 -0.3859297
-0.85757482 1.1681323 -0.38886482
-0.85728592 1.1700941 -0.38669273
-0.86313075 1.1789145 -0.38815895
-0.86566299 1.1804532 -0.38520804
-0.87193775 1.1918558 -0.3850562
-0.87549299 1.2027698 -0.38670743
-0.87268579 1.2028761 -0.38785201
-0.86992753 1.2026497 -0.38936484
-0.88187891 1.2133061 -0.38752204
-0.87728214 1.2140125 -0.38877136
-0.87326002 1.2146307 -0.3898645
-0.88158339 1.2153138 -0.38529927
-0.87698662 1.2160203 -0.38654858
-0.87296444 1.2166384 -0.38764173
-0.88261145 1.2270714 -0.38710314
-0.87827682 1.2277375 -0.38828126
-0.87739885 1.230504 -0.38543105
-0.87949395 1.2408508 -0.38840854
-0.89513367 0.86435962 -0.3845523
-0.894081 0.86744714 -0.38140428
-0.88851023 0.86872137 -0.38242772
-0.88336962 0.86951143 -0.38382483
-0.90028816 0.87239641 -0.38403693
-0.89782852 0.87277448 -0.38470539
-0.88825846 0.87043196 -0.38053381
-0.88307989 0.87194443 -0.38110027
-0.87866133 0.87224138 -0.38274971
-0.87389499 0.87319684 -0.3837834
-0.86964726 0.87496418 -0.38362965
-0.84111863 0.8749817 -0.38365406
-0.89265609 0.87524933 -0.38413942
-0.86939543 0.87667483 -0.38173574
-0.86335963 0.87704515 -0.38403031
-0.85947788 0.879035 -0.38344997
-0.84573716 0.8759346 -0.38044724
-0.84232885 0.87645835 -0.38137352
-0.83762217 0.87718177 -0.38265273
-0.83226413 0.87855959 -0.38345847
-0.85690403 0.88026655 -0.38316834
-0.85263526 0.88217658 -0.38285673
-0.83062947 0.88158196 -0.38065013
-0.82922155 0.88953686 -0.38480484
-0.81673896 0.88704228 -0.38052213
-0.81119877 0.88830948 -0.38153991
-0.80675763 0.88857633 -0.38323486
-0.80213213 0.88928717 -0.38449198
-0.80699408 0.8902027 -0.38121903
-0.80297369 0.89165199 -0.38133588
-0.79691249 0.89241737 -0.38317835
-0.79252237 0.89337695 -0.38403696
-0.78824162 0.8947475 -0.38436398
-0.79529458 0.89532626 -0.38049555
-0.7916429 0.89588749 -0.38148803
-0.78677392 0.89663577 -0.38281131
-0.78193581 0.89832956 -0.38301104
-0.77800292 0.89964664 -0.38324356
-0.78018683 0.90097362 -0.38069838
-0.77666038 0.90068424 -0.38263261
-0.771541 0.90313375 -0.38207239
-0.76715547 0.90463912 -0.38228852
-0.76751363 0.90624684 -0.38023961
-0.77142447 0.91298926 -0.38341251
-0.76820517 0.91396165 -0.38372678
-0.77040124 0.91529608 -0.38116759
-0.76795334 0.91567224 -0.38183287
-0.77520949 0.92185879 -0.38253894
-0.77283549 0.92314005 -0.38210869
-0.76783043 0.92299289 -0.38454443
-0.78001285 0.92845434 -0.38387382
-0.7775414 0.9288342 -0.38454551
-0.77811861 0.93106645 -0.38166451
-0.77312958 0.93255067 -0.38217846
-0.76909602 0.9328751 -0.38362134
-0.77685082 0.93969822 -0.38335454
-0.76854056 0.93528146 -0.38104817
-0.33570591 0.93985713 -0.38230935
-0.77742308 0.94130629 -0.38120842
-0.77312011 0.94168496 -0.38270962
-0.34516963 0.94378942 -0.38456109
-0.34213129 0.94353777 -0.38233683
-0.33761889 0.94223058 -0.38155377
-0.33095223 0.94463319 -0.38314492
0.19045989 0.94374681 -0.38497704
-0.78434223 0.94994593 -0.38079432
-0.77773333 0.94925648 -0.38459188
-0.35027856 0.94813615 -0.38247371
-0.34742412 0.94649065 -0.38247696
-0.34236404 0.94818205 -0.38259134
-0.33802661 0.9469558 -0.38301957
-0.33452392 0.94725573 -0.38221538
0.18918745 0.94641376 -0.38210413
0.19446933 0.94969279 -0.38462287
-0.78184557 0.95032966 -0.38147286
-0.34651765 0.95164788 -0.3819792
-0.34173661 0.9511342 -0.38060087
-0.33719847 0.95141429 -0.38199958
-0.33163461 0.95392865 -0.38156751
-0.32786465 0.95392764 -0.38327345
0.18899697 0.95343935 -0.38373756
0.19199346 0.95326734 -0.38264799
0.19698396 0.95477623 -0.38499358
0.20285027 0.95414293 -0.38035512
-0.78706533 0.9575631 -0.38187078
-0.34709299 0.95660979 -0.38303816
-0.32670146 0.95604134 -0.38131842
-0.3229661 0.95609444 -0.38294506
0.19335362 0.9586575 -0.38416737
0.19529597 0.95750564 -0.38292298
0.20686123 0.95761704 -0.38210836
0.2101807 0.95665914 -0.38071638
-0.34680223 0.96471155 -0.38067767
-0.34406489 0.96111959 -0.38367194
-0.32648712 0.96381545 -0.38353887
-0.32418707 0.96416891 -0.38416398
0.18950477 0.9628455 -0.38123819
0.19188637 0.96173269 -0.38085464
0.19852792 0.96375495 -0.38407752
0.20102899 0.96474636 -0.38046637
0.21293703 0.96141422 -0.38441604
-0.79176462 0.966501 -0.38211039
-0.78913468 0.96762288 -0.3819828
-0.34769106 0.96882766 -0.3832612
-0.34367362 0.96578985 -0.38433787
-0.32701725 0.96530485 -0.381551
0.18400799 0.96660882 -0.38034895
0.1894366 0.96956313 -0.38322458
0.1925423 0.96743685 -0.38372704
0.1978706 0.96552217 -0.38201484
0.17374803 0.97259784 -0.38022685
0.17649643 0.97071618 -0.38067147
0.18391539 0.97334319 -0.3823314
0.18710494 0.97185278 -0.38181776
-0.79340291 0.976367 -0.38264483
0.17360984 0.97935879 -0.38220873
0.17673889 0.97669661 -0.38348722
-0.79656225 0.98364019 -0.38392764
-0.79616928 0.98631001 -0.38097176
-0.80179113 0.99250305 -0.38401604
-0.80220556 0.99535388 -0.38048244
-0.80672526 1.0033674 -0.38188821
-0.80911303 1.0126336 -0.38278779
-0.81178308 1.0232391 -0.38198778
-0.81730992 1.0298986 -0.38452718
-0.81690651 1.0326389 -0.38149333
-0.81429225 1.0330408 -0.38220382
-0.82184047 1.043033 -0.38152444
-0.82563329 1.0497441 -0.3847875
-0.82578129 1.0522484 -0.38178125
-0.83072001 1.0593046 -0.38412121
-0.82806373 1.0597129 -0.38484314
-0.83031017 1.062089 -0.38103861
-0.82762653 1.0626827 -0.38155505
-0.83182174 1.0730711 -0.38192686
-0.82824677 1.0725259 -0.38418335
-0.8362357 1.0799294 -0.38473651
-0.83582139 1.0827435 -0.38162073
-0.83179414 1.0833626 -0.38271528
-0.84155858 1.0931989 -0.38121697
-0.83756417 1.093444 -0.38273543
-0.83362538 1.0933118 -0.38467166
-0.84748161 1.1023916 -0.38221103
-0.84362471 1.1033553 -0.38282394
-0.8417722 1.1051234 -0.38158622
-0.84503818 1.1140386 -0.38410762
-0.84475732 1.1159465 -0.38199538
-0.84798521 1.1249189 -0.38446641
-0.84756154 1.1277966 -0.38128048
-0.84495753 1.1272593 -0.38308853
-0.85163522 1.1373694 -0.38266477
-0.8478483 1.1382207 -0.38337782
-0.84756434 1.1401497 -0.38124216
-0.85625064 1.1483968 -0.38209638
-0.85361791 1.1478537 -0.38392445
-0.85318965 1.150763 -0.38070339
-0.85801965 1.1588379 -0.38350388
-0.85713112 1.1616971 -0.38054952
-0.85336775 1.1613226 -0.38269091
-0.86513072 1.1727234 -0.38005951
-0.8624388 1.1723702 -0.3816914
-0.85966027 1.1726054 -0.38267156
-0.86560994 1.1834908 -0.38166684
-0.87164569 1.1938399 -0.38285941
-0.87135357 1.195824 -0.38066265
-0.86694849 1.1974707 -0.38072178
-0.87569284 1.2061529 -0.38264629
-0.87316227 1.2072246 -0.38253269
-0.88208133 1.2182895 -0.38158131
-0.87735868 1.2185793 -0.38337663
-0.87524629 1.2202121 -0.38241535
-0.89055145 1.2274958 -0.38301474
-0.88766164 1.2279398 -0.38380012
-0.88245589 1.2297268 -0.38405666
-0.88721573 1.230969 -0.38044646
-0.88239944 1.2317092 -0.38175544
-0.87695301 1.2335331 -0.38207746
-0.89315426 0.86967951 -0.37920326
-0.89277649 0.87224543 -0.37636241
-0.88798058 0.8730585 -0.37757668
-0.88298488 0.87375027 -0.37902358
-0.86533821 0.87209076 -0.37609589
-0.86144304 0.87268937 -0.37715453
-0.85799301 0.87349671 -0.37776685
-0.85304058 0.87481213 -0.37846231
-0.83518416 0.87372708 -0.37656167
-0.83033878 0.87447178 -0.37787858
-0.8980462 0.87946075 -0.37675914
-0.88627905 0.87575185 -0.37518483
-0.88138318 0.8765043 -0.37651539
-0.8775925 0.87625092 -0.37852678
-0.85644186 0.87595212 -0.37558636
-0.85097975 0.87726671 -0.3765133
-0.84779596 0.87811226 -0.37696034
-0.84204543 0.87878823 -0.37876722
-0.83008951 0.87616479 -0.37600416
-0.89656335 0.88136858 -0.37519041
-0.89435667 0.88002777 -0.3777619
-0.84162772 0.88122189 -0.37609974
-0.83780766 0.88131011 -0.37772343
-0.83202583 0.88328594 -0.37801874
-0.82794452 0.88365734 -0.37942824
-0.82647681 0.88554561 -0.37787557
-0.82125515 0.88753581 -0.37790075
-0.81624508 0.88878101 -0.37870479
-0.81283683 0.88930476 -0.3796311
-0.80002004 0.88740498 -0.37640789
-0.79609388 0.88833934 -0.37708652
-0.79492539 0.88984269 -0.37585038
-0.81015193 0.89138007 -0.37840924
-0.8065002 0.89194131 -0.37940168
-0.7912913 0.89040124 -0.37683803
-0.78753263 0.89180619 -0.37688851
-0.7826249 0.89297414 -0.37773681
-0.77771717 0.89414209 -0.37858507
-0.78231335 0.89509046 -0.37539381
-0.77928501 0.89555585 -0.37621683
-0.77479595 0.89790046 -0.37549472
-0.76995057 0.89864516 -0.37681162
-0.77811062 0.90295547 -0.37931114
-0.77220374 0.90671378 -0.37757096
-0.76881248 0.90770984 -0.37793502
-0.76482874 0.90832222 -0.37901774
-0.77014941 0.91700667 -0.37927371
-0.76879954 0.91805011 -0.37865937
-0.77716315 0.92491841 -0.37806448
-0.77691007 0.92663729 -0.37616146
-0.7736305 0.92714131 -0.37705278
-0.78146732 0.93498266 -0.3755537
-0.77739656 0.93392032 -0.37864128
-0.77430725 0.93439519 -0.3794809
-0.77776021 0.93555248 -0.37656125
-0.77303088 0.93691224 -0.37710363
-0.7771799 0.94405729 -0.37808949
-0.76860166 0.94033593 -0.37508795
-0.34782389 0.94495791 -0.37715852
-0.33707517 0.94368106 -0.37780079
-0.33420643 0.94307542 -0.37624744
-0.77582902 0.94663924 -0.37566978
-0.77347362 0.94615322 -0.37730524
-0.34644276 0.94829386 -0.3779676
-0.3426286 0.9474088 -0.3770127
-0.33778885 0.94740796 -0.37728509
-0.33240908 0.94814932 -0.37812433
-0.32797092 0.94975942 -0.37847623
0.18954831 0.94950157 -0.37720948
0.19027542 0.94797766 -0.37885109
-0.7864536 0.95217919 -0.3772184
-0.78298396 0.95254195 -0.37836155
-0.3469047 0.95311308 -0.37814969
-0.34259948 0.9523735 -0.3775512
-0.33828792 0.95078486 -0.37622398
-0.33077419 0.95088458 -0.37588808
-0.32522395 0.95329362 -0.37557018
0.19790328 0.95430899 -0.37792331
0.20451172 0.953439 -0.37550497
0.20653963 0.95375067 -0.3760561
-0.34384176 0.95780432 -0.37848407
-0.33043683 0.95598823 -0.37969175
-0.32628298 0.95888424 -0.378171
-0.32333651 0.95864236 -0.37978706
0.19318849 0.95623875 -0.37599596
0.20204227 0.95540833 -0.37850451
0.20766798 0.95644325 -0.3772625
0.21039 0.95808095 -0.37914222
-0.78740066 0.96110123 -0.37756646
-0.34513074 0.9644261 -0.37967238
-0.32629818 0.96131295 -0.37531337
-0.32172155 0.96201634 -0.3765572
0.18877114 0.96438313 -0.37958184
0.19246489 0.96375239 -0.37736031
0.19554907 0.96181339 -0.37760296
0.2030527 0.96440077 -0.37924924
0.21466853 0.96012813 -0.37867403
-0.79131067 0.96958494 -0.37869596
-0.78878874 0.96997255 -0.37938136
-0.34687945 0.96648228 -0.37811375
-0.32601392 0.96702999 -0.37997985
0.17513078 0.96705562 -0.37537095
0.18226698 0.96831846 -0.37929845
0.18721265 0.96700311 -0.37702319
0.19072388 0.96546209 -0.37630981
0.20130396 0.96611804 -0.37819409
-0.79105115 0.97134721 -0.37674487
-0.78835642 0.97290969 -0.37612951
0.17667893 0.97162664 -0.37916332
0.18052596 0.9700281 -0.37824798
0.18658254 0.97359705 -0.37967384
-0.79146445 0.97943538 -0.37991986
0.17228077 0.97567308 -0.37691411
-0.79286551 0.9819411 -0.37634534
-0.79747427 0.98871887 -0.37755436
-0.80236483 0.99804962 -0.37724626
-0.80610317 1.0075943 -0.37720844
-0.80870628 1.0171139 -0.37771297
-0.81124794 1.0268738 -0.37796336
-0.81634182 1.0364752 -0.37724587
-0.8222481 1.0460831 -0.37776014
-0.82756931 1.0541396 -0.37875304
-0.82784939 1.0566237 -0.3757109
-0.82468176 1.0562079 -0.37763107
-0.82990026 1.0648732 -0.37795597
-0.83228326 1.0663211 -0.37517893
-0.82806927 1.0662885 -0.3771227
-0.83290243 1.0763717 -0.37756437
-0.83639991 1.0864532 -0.37700528
-0.83182734 1.086108 -0.37947783
-0.84926951 1.0945954 -0.37609115
-0.84414738 1.0935386 -0.37964761
-0.8465696 1.0950104 -0.37682495
-0.84265083 1.0965347 -0.37680778
-0.83819205 1.098142 -0.37693742
-0.8552078 1.1039857 -0.37684643
-0.85263234 1.1034542 -0.37863466
-0.84991735 1.1038716 -0.37937254
-0.85235304 1.1053516 -0.37653404
-0.84221172 1.1081465 -0.3778393
-0.84093428 1.1108153 -0.37528452
-0.84720659 1.1174346 -0.37914106
-0.84436417 1.1186174 -0.37903816
-0.84391475 1.1216699 -0.37565848
-0.84928453 1.1312819 -0.37641069
-0.85308522 1.1393012 -0.37974173
-0.85556161 1.140806 -0.37685579
-0.85178643 1.1420145 -0.37714425
-0.85874063 1.1499099 -0.37919471
-0.85637349 1.1521695 -0.37761307
-0.85261852 1.1546421 -0.37640861
-0.861022 1.1649112 -0.37501785
-0.85712314 1.1636044 -0.37831461
-0.85753363 1.1654472 -0.37596592
-0.86484194 1.1746852 -0.37788746
-0.86277771 1.1762807 -0.37694806
-0.859227 1.1755482 -0.37941349
-0.87043703 1.1855029 -0.37712249
-0.86746925 1.186923 -0.37679774
-0.87088627 1.1989988 -0.37714779
-0.86822218 1.1982446 -0.37923753
-0.87732083 1.2093165 -0.37819698
-0.87446463 1.2097554 -0.37897325
-0.87797904 1.211166 -0.37572849
-0.87160844 1.2101943 -0.37974948
-0.88673824 1.2184459 -0.37929207
-0.88644272 1.2204535 -0.37706932
-0.88198543 1.2221197 -0.37712917
-0.87767601 1.222782 -0.3783004
-0.87435967 1.226235 -0.37574705
-0.89010555 1.2305248 -0.37966108
-0.8887459 1.2333654 -0.37694186
-0.88210219 1.2337286 -0.37951967
-0.88662118 1.2350078 -0.37597492
-0.88061869 1.2374105 -0.37586886
-0.8773216 1.2374239 -0.3773441
-0.87314981 1.2382624 -0.37824625
-0.87763578 0.86936933 -0.37372944
-0.89239883 0.87481135 -0.37352157
-0.87738532 0.87107056 -0.3718459
-0.87377661 0.87295532 -0.37126538
-0.86785209 0.87348586 -0.37332165
-0.89165509 0.87715483 -0.37110722
-0.88763827 0.87735415 -0.37268955
-0.86812031 0.87581998 -0.37046084
-0.86144888 0.87542021 -0.37394676
-0.85862583 0.87727916 -0.37304124
-0.85389513 0.8782438 -0.37404817
-0.83375353 0.87808365 -0.37209517
-0.82971573 0.87870431 -0.37319255
-0.84834403 0.88085473 -0.37349376
-0.84481895 0.88217247 -0.37354109
-0.83743197 0.8838619 -0.37489817
-0.82934183 0.88124382 -0.37038097
-0.82294315 0.88288897 -0.37134314
-0.81879604 0.88451922 -0.37130496
-0.83231258 0.88631147 -0.37433794
-0.81295836 0.8868348 -0.37122688
-0.80812567 0.88864124 -0.3712917
-0.80219346 0.88872564 -0.37387505
-0.79977083 0.88909799 -0.37453347
-0.80266881 0.89085889 -0.37115636
-0.79818559 0.89182353 -0.37205112
-0.79324144 0.89250839 -0.37348309
-0.78837013 0.89415956 -0.37374768
-0.7847361 0.89471805 -0.37473533
-0.79175496 0.89529401 -0.37088561
-0.78749496 0.89665794 -0.37121102
-0.78315091 0.89744377 -0.37225294
-0.77830553 0.89818847 -0.37356985
-0.77454674 0.89959347 -0.37362033
-0.77793163 0.90072793 -0.37075827
-0.77259934 0.90209895 -0.37156004
-0.76945204 0.90203118 -0.37306282
-0.76435745 0.90446883 -0.37250531
-0.76410818 0.90616184 -0.37063086
-0.76736343 0.91303957 -0.37233475
-0.77347386 0.92151147 -0.37248313
-0.77720875 0.92869127 -0.37361553
-0.77419734 0.92873406 -0.37492692
-0.77630275 0.93076241 -0.37159425
-0.77394432 0.93045288 -0.37302393
-0.77727807 0.93808174 -0.37381056
-0.77230883 0.93976617 -0.37408042
-0.77675027 0.94077152 -0.37089211
-0.77246654 0.94142997 -0.37205642
-0.33480802 0.94433624 -0.37488922
-0.78047615 0.94804507 -0.37191847
-0.77818453 0.9471252 -0.37403429
-0.34819961 0.94732994 -0.37395686
-0.34373534 0.94695222 -0.37070066
-0.33740547 0.94659966 -0.37374848
-0.32933718 0.94761658 -0.37073219
-0.78606838 0.9547962 -0.37432098
-0.34577563 0.95142055 -0.37374538
-0.34135479 0.95402062 -0.37404057
-0.3374221 0.95189619 -0.37383312
-0.33447036 0.95069265 -0.37364244
-0.32831976 0.95344019 -0.37399828
-0.32498959 0.95488566 -0.37380758
0.1979607 0.95381725 -0.37209889
0.20291986 0.9544062 -0.3736499
-0.78564036 0.95770401 -0.37110162
-0.78344333 0.95605218 -0.37403369
-0.34224901 0.95635742 -0.37292194
-0.32703346 0.95612752 -0.37142578
-0.32406849 0.95736122 -0.37131843
0.12346271 0.95915872 -0.37175301
0.12542374 0.95882386 -0.37057358
0.19409876 0.95819235 -0.37231609
0.19747493 0.95659399 -0.37091172
0.20340803 0.95603937 -0.37195376
0.20756681 0.95705634 -0.3726407
0.21179287 0.95802063 -0.37341976
0.21527702 0.9592486 -0.37355387
-0.786816 0.96388322 -0.37456548
-0.34679449 0.9623912 -0.37419635
-0.32428768 0.96357554 -0.37356681
-0.15034299 0.96104681 -0.37091884
-0.12048195 0.96289498 -0.3704198
-0.11801653 0.96120703 -0.37081864
0.1818786 0.96449727 -0.3734009
0.18771434 0.9625634 -0.37128329
0.19081481 0.96121377 -0.3706367
0.21142983 0.96004236 -0.37088263
0.21548563 0.9606657 -0.3719849
-0.78768313 0.96631974 -0.37131357
-0.32155368 0.96568888 -0.37232256
-0.31910846 0.9671067 -0.37176424
0.10224303 0.96965563 -0.37430695
0.10812615 0.968651 -0.37076864
0.16630238 0.96746886 -0.37040085
0.17389897 0.96867204 -0.37402356
0.17750069 0.96749461 -0.37269267
0.18157338 0.96642417 -0.37080011
0.19133343 0.96677023 -0.37384561
-0.79070532 0.97369689 -0.37414342
0.14498241 0.97468132 -0.37186164
0.16965842 0.97080219 -0.3744857
0.17233285 0.9703455 -0.37287721
-0.79027289 0.97663403 -0.37089154
-0.78794563 0.9756999 -0.37304026
0.14706071 0.97500074 -0.37242648
-0.7932173 0.98436069 -0.37334633
-0.79549187 0.98574275 -0.37069577
-0.79295653 0.98613232 -0.37138483
-0.80032009 0.99193472 -0.37249315
-0.79784286 0.99185145 -0.37371087
-0.80541945 1.001855 -0.37139863
-0.80241746 1.0021576 -0.37240112
-0.80546761 1.011911 -0.37242904
-0.80830705 1.0198259 -0.37471029
-0.80790782 1.0225381 -0.37170762
-0.81084663 1.0296 -0.37494504
-0.81057906 1.0314175 -0.37293288
-0.81596524 1.0390328 -0.37441424
-0.81831056 1.0404578 -0.37168112
-0.82378727 1.0487199 -0.37396932
-0.82417411 1.0504563 -0.3717564
-0.82797384 1.0584096 -0.37355849
-0.82427394 1.0589781 -0.37456402
-0.82796633 1.0602157 -0.37144196
-0.83201003 1.0681775 -0.37312385
-0.82935375 1.0685856 -0.37384579
-0.83173674 1.0700336 -0.37106878
-0.82908052 1.0704417 -0.37179071
-0.83516163 1.0787612 -0.37373817
-0.83249032 1.0791719 -0.37446421
-0.83755821 1.0802174 -0.37094533
-0.83355111 1.0808332 -0.3720344
-0.84559393 1.0876596 -0.37143186
-0.84183645 1.0879314 -0.37281176
-0.83753949 1.0888975 -0.3736209
-0.83994812 1.090361 -0.37081403
-0.8515529 1.0970106 -0.37222403
-0.84753078 1.0974444 -0.37353364
-0.84196424 1.0994062 -0.37374789
-0.84573632 1.1006706 -0.37055829
-0.84168643 1.1012931 -0.37165898
-0.83763659 1.1019154 -0.37275967
-0.85151517 1.1110435 -0.37023231
-0.84744263 1.1116693 -0.37133914
-0.84173757 1.1133704 -0.37192237
-0.83766061 1.1150271 -0.37182122
-0.84636402 1.1231582 -0.37280419
-0.84363389 1.1235778 -0.37354621
-0.84608316 1.125066 -0.37069196
-0.84335303 1.1254857 -0.37143394
-0.85220498 1.1327078 -0.37341627
-0.84931844 1.134089 -0.3731004
-0.85178131 1.1355855 -0.37023029
-0.85673338 1.1433191 -0.37337616
-0.8549937 1.1446638 -0.37258443
-0.85409057 1.1462166 -0.37117022
-0.85816962 1.1537889 -0.37489995
-0.85657221 1.1567427 -0.37215555
-0.85420054 1.1577164 -0.37208495
-0.86059141 1.1678365 -0.37177926
-0.85794425 1.1672902 -0.37361723
-0.86714399 1.1776869 -0.37332332
-0.86314136 1.1787815 -0.3738485
-0.8667829 1.1801393 -0.37060821
-0.86397552 1.1805707 -0.37137121
-0.87014669 1.1874752 -0.37493873
-0.86703372 1.1898816 -0.3735221
-0.86674333 1.1918539 -0.37133831
-0.8641144 1.1909728 -0.37356126
-0.87170231 1.2028811 -0.37222195
-0.88215172 1.2144262 -0.37001517
-0.87890053 1.2137555 -0.37227258
-0.88602895 1.2232642 -0.37395748
-0.88297862 1.2249104 -0.37340462
-0.88555604 1.2264764 -0.37040102
-0.88139427 1.2261349 -0.37268364
-0.87754279 1.2279261 -0.37232298
-0.87406415 1.2282426 -0.37352431
-0.87281096 1.2303976 -0.37156183
-0.86723053 1.2317457 -0.37250268
-0.88718814 1.2375523 -0.3727321
-0.88227272 1.2389655 -0.37329584
-0.87812233 1.2415771 -0.37210724
-0.87700963 0.87362236 -0.36902067
-0.87444997 0.87484711 -0.36874056
-0.85840064 0.87284774 -0.36709592
-0.89301836 0.87872869 -0.36864355
-0.87760776 0.87602454 -0.36593074
-0.8729158 0.87603307 -0.36804235
-0.86811334 0.87748373 -0.36851114
-0.85624093 0.8754549 -0.36501244
-0.85284913 0.8759762 -0.36593428
-0.847516 0.87753129 -0.36652052
-0.84274977 0.87863153 -0.36738428
-0.83903271 0.87975436 -0.36774716
-0.89124745 0.88100719 -0.36677003
-0.88777 0.88187593 -0.36732262
-0.83736265 0.88104522 -0.3669872
-0.8325842 0.88173831 -0.3683345
-0.82788122 0.88312292 -0.36883575
-0.82424712 0.88368148 -0.36982343
-0.82632107 0.88567924 -0.36654085
-0.82218087 0.88565367 -0.36844283
-0.81794113 0.88630533 -0.36959514
-0.81284648 0.88874304 -0.36903763
-0.80654049 0.8913669 -0.36880931
-0.8031441 0.89299202 -0.36843765
-0.79781175 0.89436316 -0.36923948
-0.78826016 0.89160025 -0.36555323
-0.78266537 0.89278936 -0.36668724
-0.80119658 0.89549756 -0.36637741
-0.79756248 0.89605606 -0.36736509
-0.78774709 0.89839196 -0.36906165
-0.78398842 0.89979708 -0.36911213
-0.78696942 0.90099353 -0.3663598
-0.78220707 0.90117389 -0.36830151
-0.77719557 0.90304726 -0.36836877
-0.77392364 0.903826 -0.36893433
-0.77182633 0.90600985 -0.36731941
-0.76754963 0.90738505 -0.36763921
-0.76377594 0.90841913 -0.36813164
-0.77574891 0.91495746 -0.366292
-0.7633605 0.91124082 -0.36500767
-0.77184993 0.91646373 -0.36628714
-0.76844549 0.91607994 -0.36827692
-0.77378619 0.92480725 -0.36847359
-0.77598226 0.92614162 -0.36591434
-0.7735343 0.92651784 -0.36657965
-0.78081733 0.93275648 -0.36721244
-0.77774262 0.93322897 -0.36804807
-0.77564496 0.93523139 -0.36664647
-0.77305877 0.93646884 -0.36636341
-0.78019613 0.94361788 -0.3659932
-0.77704215 0.94316483 -0.36795107
-0.34196565 0.94407284 -0.36552733
-0.33816797 0.94308132 -0.36772099
-0.78276771 0.94896483 -0.36980271
-0.34614182 0.94651055 -0.36547765
-0.3415032 0.94676334 -0.36907253
-0.33832276 0.94564331 -0.3680166
-0.33137199 0.94885296 -0.36836094
-0.32796979 0.94937587 -0.36928561
-0.78146791 0.95119983 -0.36776721
-0.77977365 0.95281696 -0.36663517
-0.34067115 0.95344418 -0.3663753
-0.33781588 0.95064038 -0.36809808
-0.32652459 0.95166343 -0.36725408
-0.32421756 0.95227623 -0.36757803
0.19470841 0.95447409 -0.36772519
0.1994123 0.95247775 -0.36629295
0.20287044 0.95362216 -0.36651331
0.20658438 0.95426971 -0.36743271
-0.34683061 0.9568122 -0.36663973
-0.34206063 0.95762801 -0.36928636
-0.32679909 0.95771956 -0.36966315
-0.32294297 0.95733202 -0.36704099
-0.2092984 0.95758462 -0.36893007
-0.15368369 0.95947826 -0.36618412
-0.11840399 0.95983952 -0.36524412
0.065346174 0.95826805 -0.36522764
0.11491526 0.95944875 -0.36672586
0.11799192 0.95801115 -0.36623034
0.12800828 0.95906985 -0.36799833
0.13196054 0.95770758 -0.36664212
0.18219039 0.95915663 -0.36916107
0.19767915 0.95768791 -0.36869371
0.20118609 0.95777547 -0.36891139
0.20832132 0.95664561 -0.36703628
0.21336029 0.95783985 -0.3663063
-0.78514379 0.96107692 -0.36736724
-0.78280121 0.96041387 -0.3692047
-0.34718806 0.96199054 -0.3671914
-0.34356999 0.96079147 -0.36587852
-0.32177395 0.96160388 -0.36737627
-0.15699989 0.96129155 -0.36632651
-0.14766333 0.96058923 -0.36930722
-0.14498371 0.96013165 -0.3676956
-0.12244397 0.9613713 -0.36642361
-0.11620921 0.9608984 -0.36973166
0.053662468 0.96429616 -0.36626482
0.055580229 0.96396869 -0.36511144
0.06081235 0.96038657 -0.36595783
0.066002697 0.96480113 -0.3668682
0.1069266 0.96491808 -0.36543351
0.12470968 0.96032047 -0.36896139
0.15095399 0.96366429 -0.36536509
0.17302006 0.96492195 -0.36843956
0.1770599 0.96318233 -0.36756909
0.18227994 0.96089107 -0.36650851
0.18932408 0.96369457 -0.36822686
0.19334878 0.96169502 -0.36775529
0.19664964 0.96056885 -0.36660534
0.21131018 0.96371734 -0.3665151
-0.787296 0.96894902 -0.36840254
-0.78478765 0.96933454 -0.36908424
-0.32192412 0.96823674 -0.36916459
-0.31963581 0.96858847 -0.3697865
0.051046401 0.96608722 -0.36584163
0.063112624 0.96529466 -0.36860639
0.15652891 0.96801841 -0.36603642
0.16848013 0.96803015 -0.36770511
0.17237048 0.96683264 -0.36615732
0.18342656 0.96704507 -0.36829334
0.18648161 0.96546882 -0.36802211
-0.78703797 0.97070193 -0.36646181
-0.78452963 0.9710874 -0.36714354
-0.79001349 0.9783963 -0.36894047
-0.78975409 0.98015857 -0.36698937
-0.79700202 0.98810798 -0.36723676
-0.79995322 0.99442643 -0.36973429
-0.80210727 0.99670482 -0.36608618
-0.79958642 0.99691832 -0.36697549
-0.80515611 1.0036443 -0.36941764
-0.80348074 1.006525 -0.36679411
-0.80480564 1.0164078 -0.36745057
-0.80737543 1.0261543 -0.36770403
-0.81264484 1.0346527 -0.36820161
-0.81237721 1.0364701 -0.36618945
-0.81804168 1.0422847 -0.36965856
-0.82381344 1.0529062 -0.36904401
-0.82825321 1.0626535 -0.36845094
-0.83168679 1.0728921 -0.36773622
-0.82873899 1.072762 -0.36922184
-0.84235132 1.0831298 -0.36535972
-0.83931065 1.0825025 -0.36747101
-0.83461201 1.0824947 -0.36960459
-0.84531772 1.0895357 -0.36935467
-0.85113621 1.0998406 -0.36909074
-0.85085857 1.1017274 -0.36700186
-0.8469221 1.1028593 -0.36745331
-0.84176612 1.1037394 -0.3687515
-0.8422032 1.1067456 -0.36502543
-0.83869904 1.1059011 -0.36760104
0.13366634 1.1093221 -0.36620092
-0.85680568 1.1111574 -0.36770621
-0.85301489 1.1128734 -0.3674064
-0.84852087 1.1133579 -0.3688696
0.12862797 1.1116763 -0.36701238
0.13075913 1.1113125 -0.36573061
0.13853672 1.1149299 -0.36759689
-0.84824157 1.1152552 -0.36676902
-0.84152818 1.1170819 -0.36766082
-0.83859921 1.1176643 -0.36830139
0.13639511 1.1152956 -0.36888492
-0.85672301 1.1252954 -0.36561164
-0.85262781 1.1259248 -0.36672464
-0.84839213 1.1275082 -0.36678153
-0.86001718 1.1343198 -0.36799195
-0.85369521 1.1371664 -0.36750945
-0.85732818 1.1471331 -0.36863074
-0.85332155 1.1486915 -0.36861321
-0.85690224 1.1500266 -0.3654272
-0.85303766 1.1506205 -0.36647752
-0.86023134 1.1582112 -0.36877716
-0.85731304 1.1596076 -0.36845779
-0.85813773 1.1613765 -0.36600873
-0.85453755 1.1600342 -0.36921212
-0.034888405 1.1629851 -0.36514577
-0.86574209 1.1699038 -0.36702374
0.061911024 1.1691661 -0.36645311
-0.86214608 1.1711711 -0.36716211
-0.025015352 1.1738651 -0.36633915
-0.021703487 1.1723175 -0.36580575
0.069656141 1.1744809 -0.36582655
-0.8695904 1.1797078 -0.36984521
0.066706195 1.1765006 -0.36534932
-0.87210906 1.1812382 -0.3669101
-0.86775345 1.1828663 -0.3669686
-0.86347008 1.1840041 -0.3675701
-0.87180781 1.1949311 -0.36543649
-0.86645305 1.1938264 -0.36915454
-0.86729163 1.1956253 -0.3666639
-0.87527984 1.2068563 -0.3659386
-0.87273252 1.2053084 -0.36890709
-0.88166207 1.2177527 -0.36633223
-0.87870789 1.2188569 -0.3663719
-0.88526052 1.2284842 -0.36817825
-0.88238752 1.2289257 -0.36895907
-0.87951458 1.2293673 -0.36973989
-0.88381577 1.2306684 -0.3662678
-0.87710667 1.2330077 -0.36655581
-0.871741 1.2344863 -0.36724639
-0.87000901 1.2367148 -0.36541402
-0.88755679 1.2414429 -0.36799878
-0.86593175 0.8739655 -0.36237866
-0.86229777 0.87452406 -0.36336631
-0.84563279 0.87323183 -0.36117023
-0.88612145 0.87637872 -0.36166534
-0.882792 0.87744474 -0.3619197
-0.87873459 0.87806833 -0.36302242
-0.87369865 0.87995076 -0.36309001
-0.86568254 0.87565851 -0.36050424
-0.86229068 0.87617981 -0.36142609
-0.85586709 0.87799442 -0.36220083
-0.85348594 0.8780846 -0.36317167
-0.84847432 0.87995797 -0.36323896
-0.84056282 0.87565774 -0.36061543
-0.83615762 0.87756979 -0.3603631
-0.83067101 0.87882465 -0.3613711
-0.82826006 0.87919521 -0.36202636
-0.82343817 0.87993634 -0.36333686
-0.88991576 0.88355243 -0.36438465
-0.8530705 0.88090622 -0.36004767
-0.84095693 0.88276798 -0.3633399
-0.83853424 0.88314033 -0.36399835
-0.82704765 0.88102818 -0.36042318
-0.82252544 0.88213491 -0.36116904
-0.81727803 0.88376474 -0.3616288
-0.8132984 0.88478804 -0.36222726
-0.82592219 0.8883881 -0.36354178
-0.81152564 0.88615823 -0.36142057
-0.80676389 0.88731241 -0.36221915
-0.80295581 0.88873011 -0.36227715
-0.80074757 0.8900103 -0.36177287
-0.79712421 0.89221382 -0.36082491
-0.79197848 0.89355367 -0.36157918
-0.78723925 0.89373314 -0.36351144
-0.78362286 0.8942889 -0.36449432
-0.78650671 0.89604121 -0.36113355
-0.78257972 0.89680159 -0.3620168
-0.77685142 0.90026951 -0.36053655
-0.77190542 0.90185308 -0.36091435
-0.76816505 0.90325123 -0.36096457
-0.77572334 0.90768605 -0.36358982
-0.77219111 0.90870172 -0.36399496
-0.77117854 0.91098487 -0.36177313
-0.7671321 0.91089761 -0.36370519
-0.77534819 0.91767943 -0.36327839
-0.77159637 0.91892117 -0.36351746
-0.77256316 0.92043519 -0.36130312
-0.76987821 0.92251062 -0.36008126
-0.78037447 0.92881036 -0.36079594
-0.77628595 0.9287222 -0.36274812
-0.77522683 0.9312734 -0.36023268
-0.78018475 0.93705356 -0.36245489
-0.77649516 0.93762052 -0.36345768
-0.77734554 0.94000977 -0.36026892
-0.77488583 0.94038785 -0.36093742
-0.34536642 0.94360226 -0.3611972
-0.34181118 0.94421482 -0.36320022
-0.33838668 0.94288683 -0.36422864
-0.33089748 0.94388795 -0.3647618
-0.78314763 0.94654018 -0.36122867
-0.77880502 0.94720769 -0.36240885
-0.34659049 0.94850343 -0.36290151
-0.34204137 0.94581032 -0.36301151
-0.33741203 0.94848806 -0.36301294
-0.32674694 0.94709635 -0.36287293
-0.32354257 0.948874 -0.36223537
-0.11850774 0.94934922 -0.36107141
-0.78200138 0.95417064 -0.36403912
-0.77951825 0.95455223 -0.36471397
-0.34603453 0.95388377 -0.36237183
-0.34161949 0.9525528 -0.36057338
-0.33907425 0.95038736 -0.3616133
-0.32101351 0.9510619 -0.36081088
-0.24042253 0.95148224 -0.36095414
-0.23642235 0.95474464 -0.36062524
-0.15129262 0.95443678 -0.36170635
-0.1474271 0.95315582 -0.36030364
-0.14082488 0.95478833 -0.36215463
-0.13904591 0.95448458 -0.3610847
-0.12338156 0.95268601 -0.36028296
-0.11608382 0.9548102 -0.36080897
-0.070358649 0.95409149 -0.36246237
-0.067623049 0.95362437 -0.36081707
0.13000146 0.95413584 -0.36171716
0.19775636 0.95463705 -0.36300981
-0.78227091 0.95646119 -0.3612287
-0.77926278 0.9562875 -0.36279276
-0.34638166 0.95905179 -0.36292967
-0.34302658 0.95732081 -0.36263186
-0.32272267 0.95741153 -0.36222658
-0.24292368 0.95625585 -0.36393976
-0.23876357 0.95634753 -0.36024648
-0.21594711 0.9596433 -0.36362061
-0.21270879 0.95787257 -0.36348158
-0.207727 0.95709759 -0.36235714
-0.20359527 0.95905453 -0.36187038
-0.16119954 0.95985395 -0.36213171
-0.15744153 0.95879829 -0.36048627
-0.15101524 0.95902258 -0.36457923
-0.1474573 0.95841503 -0.36243939
-0.14147264 0.956146 -0.36069211
-0.13873121 0.95906395 -0.36393514
-0.12076028 0.95770454 -0.3605088
-0.11724018 0.95732421 -0.36302429
-0.11119859 0.9586091 -0.36091053
-0.098381579 0.9565872 -0.36089113
-0.085742325 0.95652187 -0.36010176
-0.076384902 0.95852971 -0.36102352
-0.072459899 0.95615482 -0.36119455
-0.067767151 0.95956063 -0.3620449
-0.061606765 0.95722497 -0.36024627
-0.0456159 0.95989919 -0.36244324
-0.042846717 0.95942628 -0.36077777
-0.039405309 0.95754451 -0.36063001
-0.031651009 0.95955938 -0.36092806
-0.026593955 0.95609713 -0.36174616
-0.02474037 0.95578063 -0.36063135
-0.017082058 0.95693171 -0.36229438
-0.014374776 0.95603454 -0.36131197
-0.007903222 0.95891732 -0.36340174
0.018786153 0.95836377 -0.36124477
0.02238526 0.95686835 -0.36038846
0.033349797 0.95772821 -0.36164126
0.036277074 0.95669729 -0.36066937
0.057615202 0.95897973 -0.36086023
0.064647868 0.95973164 -0.36365104
0.067554042 0.95856321 -0.36290151
0.071203686 0.95780557 -0.36090609
0.084484465 0.95759332 -0.36177042
0.086411178 0.9572643 -0.36061162
0.098933429 0.95770687 -0.36115223
0.10157391 0.95589912 -0.36157942
0.11881943 0.95878208 -0.36437777
0.12204887 0.95877802 -0.36162254
0.12863997 0.95573676 -0.36050367
0.13451488 0.95864606 -0.3630642
0.13671394 0.95781243 -0.36242217
0.14111206 0.95614487 -0.36113808
0.14960702 0.95998156 -0.36008123
0.17632146 0.95906454 -0.36241099
0.18029727 0.95838559 -0.3600198
0.18845229 0.95948714 -0.363316
0.19259796 0.95784605 -0.36220866
0.19739887 0.95624661 -0.36147758
0.20226789 0.95697784 -0.36230221
0.20699157 0.95778042 -0.36349615
0.21098232 0.95866966 -0.36425698
-0.79201728 0.96411294 -0.36069575
-0.78837508 0.96399069 -0.36248624
-0.7847842 0.96351945 -0.36466298
-0.34722108 0.96192414 -0.36136556
-0.28816175 0.96433622 -0.36008519
-0.16240782 0.9606812 -0.36193624
-0.12086125 0.96152186 -0.36484659
-0.07084734 0.96072841 -0.36294413
-0.048806466 0.96303225 -0.36051813
-0.036033113 0.96160704 -0.36163381
-0.034179527 0.96129048 -0.36051899
-0.010454142 0.9606638 -0.36298907
-0.0089245969 0.96105802 -0.36109573
-0.00066321564 0.96232039 -0.36207777
0.013643603 0.96188456 -0.36041284
0.016214874 0.96012419 -0.36082879
0.023791896 0.96281207 -0.36226314
0.029216208 0.96055818 -0.36097252
0.039922517 0.96070999 -0.3615135
0.041823864 0.96038526 -0.36036995
0.047541168 0.96293181 -0.3636044
0.051448286 0.96271098 -0.36059153
0.057307683 0.96257293 -0.36240041
0.062554434 0.96200967 -0.36205783
0.06586732 0.9608677 -0.360921
0.10111529 0.96333474 -0.36084893
0.11810863 0.96027184 -0.36277294
0.13314712 0.96025431 -0.36184514
0.14360605 0.96307778 -0.36061394
0.15293294 0.96332633 -0.36417487
0.16698959 0.9642005 -0.36184424
0.17324778 0.9616797 -0.36115515
0.17559762 0.9605816 -0.36077672
0.18260498 0.96328515 -0.36267486
0.18770674 0.96143407 -0.36106178
0.19692218 0.96192837 -0.36435318
0.20751926 0.96062016 -0.36040175
-0.78676718 0.96662509 -0.36012125
-0.78402394 0.96631587 -0.36172456
-0.349603 0.96705204 -0.36173889
-0.016236892 0.96558386 -0.36062637
-0.012832478 0.96663535 -0.36136621
0.053923041 0.96559602 -0.36411151
0.10621579 0.9664079 -0.36382866
0.15186462 0.96764791 -0.36194932
0.15786634 0.96704906 -0.36284161
0.16547446 0.96649081 -0.36065623
0.17332034 0.96813679 -0.36340809
0.17779879 0.96643889 -0.36210054
0.18028039 0.96508193 -0.361994
0.20820852 0.96508735 -0.36350459
0.2102364 0.96539903 -0.36405572
-0.79279292 0.97324383 -0.36087608
-0.78752708 0.97362483 -0.36280996
-0.78626388 0.97596061 -0.36063975
0.11485385 0.9797256 -0.36047313
-0.79230708 0.98234975 -0.3632631
-0.34948084 0.98441988 -0.36163387
-0.79149765 0.98505771 -0.36045069
-0.80205441 0.99166036 -0.36078268
-0.79838192 0.99135894 -0.36279699
-0.8017143 0.99937463 -0.36313027
0.1772189 0.99975371 -0.3607372
-0.8024711 1.0009979 -0.36088279
-0.80308568 1.0092089 -0.36382264
0.12022189 1.0087712 -0.36036471
0.16030577 1.0097663 -0.36032811
-0.80666292 1.0104078 -0.36079779
-0.80230767 1.0116602 -0.36129728
0.1154799 1.010987 -0.36112845
0.16746359 1.0146655 -0.36082068
-0.80440843 1.0191057 -0.36446351
0.15882474 1.0190051 -0.36176214
0.16263339 1.0169225 -0.36159861
