# .PCD v0.7 - Point Cloud Data file format
VERSION 0.7
FIELDS x y z
SIZE 4 4 4
TYPE F F F
COUNT 1 1 1
WIDTH 1339
HEIGHT 1
VIEWPOINT 0 0 0 1 0 0 0
POINTS 1339
DATA ascii
-0.052563105 0.64272004 -0.013750139
-0.047251262 0.64240712 -0.013395209
-0.04277705 0.64245677 -0.012768526
-0.037638687 0.64266694 -0.01237712
-0.031972971 0.64209175 -0.013585893
-0.026680062 0.64286458 -0.014026282
-0.022714883 0.64290839 -0.013567576
-0.017500391 0.64201742 -0.013216563
-0.012861417 0.64272726 -0.013224433
-0.0072627929 0.64328271 -0.01394541
-0.0022906305 0.64275771 -0.013156576
0.0028584157 0.64262354 -0.013218396
0.0073112138 0.64224827 -0.012554479
0.012394599 0.64220244 -0.012528336
0.01758405 0.64318758 -0.013155367
0.02253513 0.64248383 -0.013740072
0.027256912 0.64225787 -0.013426087
0.032689068 0.64295417 -0.013002314
0.037542906 0.64204621 -0.012824077
0.042034525 0.64199162 -0.012883953
0.047881246 0.64238185 -0.012745682
0.052422374 0.64249194 -0.011976148
0.057058766 0.64220321 -0.012571551
0.062733114 0.64310086 -0.014050729
0.066831127 0.64248389 -0.013704961
0.073003076 0.64215189 -0.012263662
0.077650882 0.64240104 -0.01219092
0.082334816 0.64242083 -0.012424431
0.087721154 0.64253551 -0.012865499
0.092320368 0.6424498 -0.012958796
0.097214371 0.64245039 -0.012709925
0.10222367 0.64267337 -0.01249188
0.10751653 0.64248306 -0.011678501
0.11232601 0.64229405 -0.01227713
0.11746291 0.64234632 -0.012571182
0.12262963 0.64245343 -0.012099468
0.12740389 0.64257747 -0.01207844
0.13250607 0.64217019 -0.011825759
0.13721956 0.64262915 -0.012090391
0.14287995 0.6420961 -0.011463
0.14750865 0.64271849 -0.013123101
0.15266547 0.64251089 -0.012663646
0.1578117 0.64246315 -0.012002387
0.16295688 0.64258355 -0.012247071
0.16770077 0.64222771 -0.012796888
0.17239946 0.64237601 -0.01247047
0.17770134 0.64234704 -0.011514496
0.18245389 0.64267308 -0.012175328
0.18793648 0.64265281 -0.012303718
0.19266202 0.64278126 -0.013321077
0.19742811 0.64219612 -0.013525516
0.20272237 0.64231604 -0.01263481
0.20698622 0.64287841 -0.013976161
0.21137553 0.64226174 -0.014563765
-0.39019293 0.64941329 -0.014956193
-0.38827556 0.64765221 -0.012376877
-0.38496867 0.64769608 -0.010330386
-0.1843574 0.6451295 -0.010278122
-0.17552969 0.64953148 -0.010089267
-0.1717775 0.64744127 -0.010305002
-0.16719891 0.6472891 -0.010746223
-0.16221192 0.64798439 -0.010757897
-0.15696874 0.64715528 -0.010986811
-0.15264562 0.64736068 -0.010727947
-0.14782634 0.64755362 -0.010990383
-0.14260064 0.64743227 -0.011249281
-0.13778149 0.64775449 -0.011766635
-0.13221112 0.64715248 -0.012531668
-0.12700495 0.64741284 -0.012923296
-0.12246109 0.6477955 -0.011819718
-0.11724658 0.64773208 -0.012273275
-0.11236615 0.6479007 -0.013950583
-0.10682435 0.64780575 -0.013778324
-0.10220655 0.64714074 -0.012668792
-0.098002248 0.64722097 -0.012026877
-0.092749499 0.6480155 -0.012831202
-0.086792082 0.64747661 -0.013844231
-0.082331255 0.6476804 -0.013125249
-0.07784716 0.6473639 -0.012234335
-0.072476253 0.64726532 -0.012167561
-0.067699566 0.64805019 -0.011972159
-0.062285073 0.64719713 -0.011893099
-0.057746839 0.64777595 -0.011645961
-0.052654043 0.64735889 -0.012993285
-0.047755979 0.64701623 -0.013003167
-0.042213179 0.64752376 -0.013014195
-0.038001612 0.64801252 -0.01253413
-0.032644838 0.64760357 -0.013129863
-0.027828852 0.64759421 -0.012621173
-0.022405684 0.64745671 -0.011809413
-0.017855788 0.64691377 -0.011715557
-0.012332191 0.64794302 -0.013110766
-0.0075736772 0.64799529 -0.013204665
-0.0025936663 0.64739871 -0.012191136
0.001872749 0.64689022 -0.011168606
0.0073982677 0.64738613 -0.011132018
0.013110934 0.64734304 -0.012605282
0.017246645 0.64760876 -0.012574897
0.022475244 0.64751643 -0.012494585
0.027404739 0.64724201 -0.012919437
0.032609671 0.64791501 -0.013893025
0.037838716 0.64795321 -0.013454735
0.042431373 0.64712739 -0.012986585
0.047272366 0.64735264 -0.012972792
0.052901551 0.64747465 -0.012717779
0.057048552 0.64711517 -0.011976533
0.062362406 0.64817995 -0.012808566
0.06772285 0.64709562 -0.013608372
0.073020652 0.64758939 -0.012430085
0.077566542 0.64766955 -0.012505899
0.082442924 0.64734519 -0.012647651
0.087569453 0.6473999 -0.01301291
0.092501946 0.64762491 -0.013746782
0.097403146 0.64759499 -0.013466038
0.1023112 0.64691454 -0.012681617
0.10772274 0.64763069 -0.011885448
0.11260395 0.64765537 -0.012349177
0.11728884 0.64772022 -0.012968724
0.12259602 0.64733213 -0.012219097
0.12753837 0.64769179 -0.011403246
0.13245687 0.64763957 -0.011421989
0.13781407 0.64732432 -0.012107508
0.14296076 0.647053 -0.01129318
0.14748746 0.64735436 -0.012051405
0.15232633 0.6474185 -0.012228139
0.15744607 0.64747334 -0.012155483
0.16263728 0.64750814 -0.012029756
0.16735667 0.64751369 -0.013216225
0.17249936 0.64732814 -0.012452409
0.17711397 0.64755929 -0.012727045
0.18287942 0.64716333 -0.011728489
0.18696803 0.64759183 -0.012536244
0.19290353 0.6471622 -0.013442692
0.19680925 0.64743376 -0.014089041
0.20269775 0.6474219 -0.012940906
0.20747061 0.64770645 -0.013194571
0.2118316 0.64689112 -0.014242852
-0.39118686 0.65275884 -0.012871524
-0.38889673 0.65136224 -0.010473717
-0.18125151 0.65402907 -0.010500142
-0.1777768 0.65269303 -0.010227637
-0.1722666 0.65213424 -0.010486234
-0.16748762 0.65293962 -0.010650499
-0.16360229 0.65255046 -0.010472251
-0.15738241 0.65231669 -0.010543885
-0.15242253 0.65283263 -0.010842777
-0.1466419 0.65242696 -0.011002689
-0.14207982 0.65229183 -0.010894737
-0.13771836 0.65263391 -0.011168279
-0.13249381 0.65254998 -0.012367542
-0.12758431 0.65285891 -0.012691624
-0.12300606 0.65233874 -0.011771037
-0.11702979 0.65259761 -0.012493358
-0.11274736 0.65247273 -0.012967188
-0.10747331 0.65223974 -0.013215198
-0.10243693 0.65230018 -0.012197618
-0.097024769 0.65287131 -0.011759789
-0.092352584 0.65218991 -0.01249251
-0.08788076 0.65226698 -0.012697894
-0.082523301 0.65182179 -0.011950767
-0.077598244 0.65301484 -0.011891345
-0.072263308 0.65202981 -0.012088728
-0.067304678 0.65284604 -0.012139223
-0.062496282 0.65208513 -0.011145413
-0.057583965 0.65257061 -0.01074068
-0.052620608 0.65247059 -0.011938989
-0.047320522 0.65217662 -0.012833115
-0.042406242 0.65260875 -0.012830138
-0.037755724 0.65283531 -0.012096683
-0.03210758 0.65244812 -0.012088118
-0.027491434 0.65225667 -0.011609292
-0.022622263 0.6516732 -0.011072203
-0.017153965 0.65290594 -0.010830318
-0.01263887 0.65265381 -0.011271771
-0.0074509857 0.65255314 -0.011873537
-0.0024603168 0.65207797 -0.011773136
0.0029488474 0.65291029 -0.011400947
0.0078904629 0.65283245 -0.011663309
0.012743142 0.65242243 -0.011892262
0.017258858 0.65254432 -0.012390024
0.022123965 0.65278316 -0.012128259
0.027470166 0.65227687 -0.012973095
0.032093026 0.65205014 -0.013324466
0.037149917 0.65203869 -0.013163524
0.043121982 0.65278304 -0.014026134
0.04732373 0.65184373 -0.013761866
0.052485179 0.6530239 -0.013782798
0.057815041 0.65188926 -0.013209747
0.061677244 0.65224242 -0.012812308
0.068217516 0.65290028 -0.012822051
0.072804913 0.65228909 -0.011890529
0.077468902 0.65258461 -0.011716213
0.082565106 0.65242594 -0.012646816
0.087080777 0.65258193 -0.013170747
0.092267111 0.65253466 -0.014232405
0.09762954 0.65201902 -0.013995152
0.10252547 0.652628 -0.013271467
0.10756457 0.65264511 -0.012859452
0.11272334 0.65244722 -0.012097201
0.11785819 0.65271157 -0.012282728
0.12230935 0.6527279 -0.012714845
0.12741786 0.65250325 -0.011529284
0.13244762 0.65269762 -0.011835728
0.13766077 0.65214062 -0.011655221
0.14227229 0.65281796 -0.012573079
0.14789501 0.65263999 -0.012571346
0.15240653 0.65264386 -0.012505732
0.15720645 0.65244567 -0.011751308
0.16235666 0.65251541 -0.011396967
0.16714218 0.6523543 -0.012845732
0.1725972 0.65254849 -0.012330733
0.17755674 0.65258366 -0.012847334
0.18227036 0.65249377 -0.012918373
0.18771927 0.65256053 -0.013408017
0.19230977 0.6525687 -0.014496338
0.19769958 0.65303665 -0.013878526
0.20244125 0.65248901 -0.01339751
0.20741299 0.6527155 -0.012649741
0.21162793 0.65248913 -0.0142452
0.21673866 0.65101421 -0.014963143
-0.39316052 0.65742683 -0.012566379
-0.38951704 0.65533519 -0.010034196
-0.17672676 0.65655679 -0.010327538
-0.17237346 0.65657187 -0.010516163
-0.16723844 0.65785664 -0.010539125
-0.16201681 0.65694332 -0.010792813
-0.15721378 0.65705723 -0.01071953
-0.15268108 0.65750378 -0.010802604
-0.14790507 0.65702313 -0.010877457
-0.14238863 0.65753287 -0.010593964
-0.13702802 0.65721446 -0.011172973
-0.13264191 0.65680164 -0.011510159
-0.12722063 0.65844643 -0.012155083
-0.12260622 0.65744573 -0.011779469
-0.11752409 0.6571179 -0.011710253
-0.11262651 0.65758532 -0.012584212
-0.10748992 0.65696079 -0.013079675
-0.10268231 0.65754032 -0.012548914
-0.097956955 0.65783095 -0.011802894
-0.092368498 0.6568467 -0.012105302
-0.086980686 0.65761048 -0.012486756
-0.082388759 0.65729576 -0.011843676
-0.077307634 0.65760344 -0.01160168
-0.072813377 0.65765923 -0.011602733
-0.067215577 0.65788954 -0.012014933
-0.06283956 0.65707856 -0.011083612
-0.057462182 0.6575371 -0.010658103
-0.052312709 0.65788376 -0.011190074
-0.047599003 0.65721321 -0.01140485
-0.042236809 0.65761507 -0.011412078
-0.037510127 0.65737951 -0.011081553
-0.032909609 0.65707999 -0.011439352
-0.027540086 0.65788561 -0.012344539
-0.02254633 0.6580016 -0.012168145
-0.017488403 0.65739465 -0.011478682
-0.012034665 0.65697587 -0.011320306
-0.0073684463 0.65751195 -0.011853192
-0.0026829964 0.6575892 -0.012121808
0.002257583 0.65733474 -0.011557128
0.0076818448 0.65752542 -0.010952978
0.012345749 0.6566996 -0.011654699
0.017862543 0.65722799 -0.012280039
0.022676677 0.65751439 -0.011769266
0.028185386 0.65680438 -0.01156803
0.032400016 0.65674311 -0.012520488
0.038004983 0.65763962 -0.013477026
0.042558242 0.65790516 -0.012951667
0.047404155 0.65725636 -0.013254878
0.052905548 0.65837401 -0.013422857
0.057461746 0.65743119 -0.012864656
0.062919021 0.65731251 -0.01267208
0.067616485 0.65733111 -0.011637262
0.072680049 0.6576156 -0.012616371
0.077326283 0.65789765 -0.012602276
0.082263775 0.65751731 -0.012272455
0.087635994 0.65763479 -0.013273869
0.092307612 0.6577431 -0.014042901
0.098000132 0.65800524 -0.013895273
0.10257241 0.65734762 -0.013263825
0.10741813 0.65781492 -0.012266311
0.11242495 0.65749365 -0.012878332
0.11755699 0.6577177 -0.011961456
0.12244781 0.65758973 -0.01213604
0.12730169 0.65719771 -0.013032467
0.13231154 0.65783423 -0.012528261
0.13737857 0.6573832 -0.012231702
0.14284779 0.65723592 -0.012218888
0.1474112 0.6572789 -0.012640164
0.15271619 0.65758306 -0.012105864
0.15736097 0.65730011 -0.011764735
0.16259615 0.65741944 -0.011079086
0.16768056 0.65721291 -0.01150048
0.17241029 0.65766817 -0.011866617
0.17746815 0.65746182 -0.011586491
0.18254226 0.65732563 -0.013310753
0.18772182 0.65754938 -0.013343954
0.19251552 0.65750909 -0.013613897
0.19785921 0.65774649 -0.012837409
0.20237379 0.65751052 -0.012451459
0.20767188 0.65736949 -0.012213347
0.21273865 0.6574825 -0.013311522
0.21687873 0.65827179 -0.014096998
-0.39556065 0.66360313 -0.014389707
-0.39371771 0.66243702 -0.011554146
-0.19214822 0.66182595 -0.010063855
-0.18880665 0.66256684 -0.01019947
-0.1773956 0.66232544 -0.010468243
-0.17303267 0.66263378 -0.010510866
-0.16769458 0.66209191 -0.010496988
-0.16293672 0.66164672 -0.010362442
-0.15691708 0.66225338 -0.010247094
-0.15200138 0.66217095 -0.011095486
-0.14713599 0.66269392 -0.011043131
-0.14254406 0.66262412 -0.010986299
-0.13763583 0.66262436 -0.0115256
-0.13195014 0.66180992 -0.012026677
-0.12716198 0.66249925 -0.011881215
-0.12239726 0.66236782 -0.011554787
-0.11804019 0.66255236 -0.011376365
-0.11271846 0.66274017 -0.012581828
-0.10695916 0.66211891 -0.013600022
-0.10255326 0.66299903 -0.013550474
-0.097728886 0.66301173 -0.012692839
-0.092576966 0.66235405 -0.012110772
-0.087119222 0.66202158 -0.01242221
-0.083017662 0.66254246 -0.011520553
-0.07700032 0.66236526 -0.011023271
-0.072886705 0.66286165 -0.010637225
-0.067407504 0.66263449 -0.011214182
-0.062589087 0.66277182 -0.011080967
-0.057873249 0.66241801 -0.011011248
-0.052317049 0.66291142 -0.011119173
-0.047522586 0.66180021 -0.011328512
-0.041851711 0.6627441 -0.010753869
-0.037390307 0.66255224 -0.011104356
-0.032456301 0.66241807 -0.01102132
-0.027660374 0.66283065 -0.011083548
-0.022548547 0.66217107 -0.011502689
-0.017531581 0.66219294 -0.012363156
-0.012349137 0.66251683 -0.012606009
-0.0075868615 0.66255671 -0.012457081
-0.0021611799 0.66254437 -0.011495077
0.0024919065 0.66209549 -0.010718827
0.0071745985 0.66272527 -0.010715332
0.012583353 0.6624428 -0.010584134
0.017209021 0.66174942 -0.010929833
0.022422845 0.6623891 -0.011810484
0.027606241 0.66274893 -0.011884554
0.031937506 0.66198343 -0.011919287
0.037442375 0.66250205 -0.01259001
0.043261096 0.66267473 -0.013019833
0.047327667 0.66247523 -0.01243601
0.052154325 0.66220599 -0.011815405
0.058514763 0.66244543 -0.011623974
0.062738225 0.66263992 -0.011692131
0.067722581 0.66227144 -0.011793997
0.072530419 0.66210443 -0.012261075
0.077680364 0.662655 -0.012101254
0.082935929 0.66232979 -0.012234011
0.087796345 0.66248912 -0.012745877
0.092428394 0.66252661 -0.013380954
0.097374044 0.66291714 -0.013017185
0.10240251 0.6625399 -0.012408295
0.10784406 0.66245329 -0.011512226
0.11245051 0.66265714 -0.012064885
0.11702828 0.66182029 -0.012186912
0.12266202 0.66237801 -0.012285639
0.1279721 0.66233993 -0.013176566
0.13255541 0.66205907 -0.011724206
0.13660936 0.66192085 -0.011896338
0.1425854 0.66220433 -0.013464103
0.14785542 0.66204393 -0.012253734
0.15231229 0.66288459 -0.012472436
0.15709288 0.66243303 -0.012428443
0.16237578 0.6627723 -0.011330185
0.16788174 0.66237104 -0.01130333
0.17252296 0.66247511 -0.011823141
0.17770638 0.66279268 -0.011672936
0.18240908 0.66261637 -0.013213836
0.18737772 0.66247004 -0.013090394
0.19242159 0.66255629 -0.012905442
0.19732991 0.66255158 -0.013036487
0.20249863 0.66233492 -0.012136351
0.20773253 0.66265088 -0.012434188
0.21273595 0.66207683 -0.012471299
0.2176045 0.66232419 -0.013380216
-0.39600918 0.66732287 -0.012191947
-0.39415079 0.6671676 -0.011023528
-0.19273078 0.66887426 -0.010271134
-0.188871 0.66839725 -0.010356431
-0.17668051 0.66829622 -0.010365117
-0.17316647 0.66826737 -0.010376884
-0.1667251 0.66679579 -0.010219017
-0.16181198 0.66958976 -0.010321435
-0.15636156 0.66741735 -0.010485915
-0.15283705 0.66709465 -0.010592217
-0.14802717 0.66707474 -0.010972589
-0.14204155 0.66762364 -0.011207283
-0.13743345 0.66741025 -0.011665233
-0.1330076 0.66708332 -0.01173941
-0.12762499 0.66754609 -0.012096114
-0.12268968 0.66744202 -0.011846596
-0.11773698 0.66804832 -0.011474024
-0.1120874 0.66749191 -0.012615154
-0.10738347 0.66756833 -0.013322661
-0.10218457 0.66725469 -0.012775539
-0.097386695 0.66740686 -0.012724708
-0.092297249 0.66772187 -0.012898412
-0.08752472 0.66742456 -0.012652369
-0.082497284 0.66744691 -0.012110039
-0.077502467 0.66812748 -0.01212151
-0.072698131 0.66809237 -0.010921709
-0.068167754 0.66779482 -0.010701165
-0.062043533 0.66693521 -0.010915707
-0.057594281 0.66664469 -0.010909894
-0.052591406 0.66759104 -0.01060062
-0.046988748 0.66735727 -0.011708937
-0.042466711 0.66726285 -0.010945008
-0.037329212 0.66684783 -0.010578633
-0.03333972 0.66736305 -0.010431361
-0.027611362 0.66781896 -0.011044138
-0.021894187 0.66719383 -0.011792908
-0.017202146 0.66709042 -0.011635718
-0.012271366 0.66716421 -0.011690843
-0.0073022107 0.6673975 -0.011683845
-0.0026194449 0.66802448 -0.011264413
0.0019165423 0.66747016 -0.010691333
0.0065362081 0.66839516 -0.010194557
0.0128658 0.66742784 -0.010951597
0.018047918 0.66767538 -0.011264892
0.0227818 0.66784418 -0.011742985
0.027444735 0.66759151 -0.011758695
0.032701295 0.66759849 -0.012700452
0.036914006 0.66793585 -0.012926709
0.042217784 0.66779482 -0.012492097
0.048117694 0.66702878 -0.011892659
0.052257471 0.66785371 -0.011797186
0.057996962 0.66802818 -0.012481251
0.062487286 0.66709936 -0.012061477
0.067422301 0.66754562 -0.012302043
0.072746195 0.66679335 -0.012634738
0.077549949 0.66713196 -0.012003773
0.082442038 0.66778278 -0.012160977
0.08751978 0.666897 -0.012067507
0.092310339 0.66733462 -0.012232795
0.097603627 0.66774184 -0.012326479
0.10242672 0.66748816 -0.012179242
0.10706975 0.66752708 -0.01171435
0.11243239 0.66749847 -0.011832572
0.1172578 0.66815245 -0.012889546
0.12274081 0.66731727 -0.012105034
0.1272241 0.66740572 -0.012382584
0.13146533 0.66682255 -0.011851514
0.13758838 0.66870445 -0.012961748
0.14306168 0.66750181 -0.013448603
0.14752185 0.66773003 -0.012313444
0.15263957 0.66773295 -0.012118185
0.15769078 0.66742003 -0.011748715
0.16220073 0.66770273 -0.011652744
0.16723719 0.6674903 -0.010864037
0.17228769 0.66751689 -0.011564716
0.17760673 0.66709298 -0.012387401
0.18263902 0.66766357 -0.012387098
0.18727472 0.66746628 -0.012941867
0.19252962 0.66755676 -0.013279028
0.19730277 0.66762853 -0.013414943
0.20260146 0.66729277 -0.012484503
0.20735537 0.66761315 -0.012581334
0.21234186 0.66716969 -0.01265526
0.21726552 0.66760498 -0.013000453
0.22105469 0.66831899 -0.013850255
-0.39656341 0.67242253 -0.012550233
-0.39436844 0.67233735 -0.010451523
-0.17647518 0.673352 -0.010291122
-0.16960232 0.67029297 -0.010080107
-0.16161549 0.67259419 -0.010537693
-0.15727632 0.67249548 -0.010715054
-0.15253346 0.67288703 -0.010830809
-0.148092 0.67205763 -0.010599523
-0.14278929 0.67233628 -0.010705272
-0.13744524 0.67238986 -0.011909392
-0.13239464 0.67242455 -0.011666742
-0.12703888 0.67287076 -0.011222158
-0.12237938 0.67159313 -0.011612913
-0.11713337 0.67263335 -0.012150537
-0.11241861 0.6728403 -0.012448757
-0.10790563 0.67261916 -0.01299225
-0.10264257 0.6725269 -0.012713698
-0.097576335 0.67250431 -0.012591157
-0.092416279 0.67282957 -0.01303645
-0.087466396 0.6727314 -0.012721412
-0.082778111 0.67265934 -0.012276599
-0.077452242 0.67279649 -0.012063297
-0.072431698 0.67274851 -0.01102528
-0.06790179 0.6731202 -0.010840506
-0.06264206 0.67230684 -0.011159456
-0.056983188 0.67212611 -0.01191098
-0.052696731 0.67277235 -0.011622898
-0.047803745 0.67264873 -0.011118532
-0.042519934 0.67253053 -0.011610338
-0.038197368 0.6724577 -0.01091559
-0.03240528 0.67298615 -0.011371069
-0.027614366 0.67228353 -0.011515242
-0.022430915 0.67190611 -0.012698387
-0.017363902 0.67233455 -0.012466898
-0.012696644 0.67202652 -0.011555132
-0.0074890242 0.67211235 -0.0118612
-0.0021272211 0.67179912 -0.01178772
0.0022352373 0.67364407 -0.011431111
0.0076428787 0.67313743 -0.010688321
0.01300157 0.67266911 -0.011671659
0.017339781 0.67245358 -0.011458465
0.02135171 0.67174721 -0.01125839
0.027383042 0.67244077 -0.012347884
0.032259807 0.67307323 -0.012648115
0.038049724 0.67235094 -0.013784314
0.042757452 0.67302656 -0.013554621
0.048042692 0.67252743 -0.013039979
0.052785788 0.67278188 -0.01195798
0.057247277 0.67291617 -0.012634149
0.062399365 0.67195916 -0.01251003
0.067479037 0.6723482 -0.012155246
0.072218113 0.6725148 -0.013798688
0.077679537 0.67267883 -0.011932627
0.081617393 0.67265755 -0.012029074
0.088218495 0.67244428 -0.012996996
0.092714451 0.67266959 -0.012076296
0.097464606 0.67244548 -0.012147252
0.10255855 0.67235452 -0.011397876
0.10714326 0.67279953 -0.012117496
0.1122781 0.67252749 -0.011841934
0.11778531 0.6727919 -0.012706344
0.12248733 0.67295229 -0.013151269
0.12740572 0.67244238 -0.011672419
0.13280401 0.6729247 -0.012410669
0.13731633 0.6730442 -0.012897773
0.14269404 0.67187208 -0.013144467
0.14735077 0.67262548 -0.012042146
0.15238573 0.67254895 -0.011671881
0.15788122 0.67233211 -0.011598102
0.16276117 0.67245525 -0.01187777
0.16768941 0.67227763 -0.010857965
0.1725447 0.67287695 -0.012363844
0.17751354 0.67223889 -0.013027434
0.18248494 0.67260587 -0.011687395
0.18770024 0.67213207 -0.012564038
0.19273421 0.67267555 -0.013467118
0.19753113 0.67244393 -0.013531112
0.20224106 0.67248398 -0.013487607
0.20770895 0.67206442 -0.012088913
0.21251397 0.67256427 -0.012544008
0.21762392 0.67234147 -0.011845035
0.22171725 0.67227036 -0.013202892
-0.39724517 0.67724735 -0.01264206
-0.17101993 0.67763966 -0.010149285
-0.16242988 0.6782729 -0.01036191
-0.15800171 0.67732036 -0.010689272
-0.1523242 0.67705518 -0.010729601
-0.14724535 0.6778127 -0.010756421
-0.1423561 0.67786092 -0.01086575
-0.13708602 0.67755407 -0.010887519
-0.13264482 0.67639464 -0.011115571
-0.12715544 0.67769676 -0.011413975
-0.12229134 0.67779022 -0.011649826
-0.11731975 0.67706841 -0.012352307
-0.11281721 0.67809761 -0.011848444
-0.10732169 0.67711288 -0.012343111
-0.10242622 0.67721599 -0.012500978
-0.097135514 0.67763078 -0.012169293
-0.092330694 0.67782652 -0.013054329
-0.087414011 0.67712462 -0.012642928
-0.082352318 0.67733413 -0.01179709
-0.07717371 0.67802131 -0.012056252
-0.072670951 0.67767471 -0.012156237
-0.067643732 0.67700821 -0.011516378
-0.062206507 0.67751575 -0.011661179
-0.057633139 0.6769405 -0.011452603
-0.051920973 0.67735183 -0.012022523
-0.047355846 0.67819011 -0.012175202
-0.042653866 0.67786634 -0.012852064
-0.036990229 0.67788982 -0.012492665
-0.032441299 0.67724347 -0.012106651
-0.028008096 0.67757785 -0.012644636
-0.022783568 0.67704618 -0.013629282
-0.01701794 0.6770016 -0.01405734
-0.012663918 0.67744595 -0.013413019
-0.0076504764 0.67800874 -0.013464038
-0.0027749483 0.67735904 -0.013233485
0.0022766241 0.67805737 -0.01255661
0.0077226511 0.67736471 -0.011705535
0.012337509 0.67684436 -0.011626065
0.018065397 0.67840493 -0.01293038
0.022532765 0.67760462 -0.012313
0.02822536 0.6769731 -0.01337356
0.032565366 0.67758894 -0.01370381
0.03724001 0.67820376 -0.013684511
0.042179547 0.67667121 -0.013767623
0.047626011 0.67798156 -0.012924323
0.052853718 0.67747098 -0.01185633
0.057456546 0.67715073 -0.011734267
0.063100167 0.67713851 -0.012155886
0.067901582 0.6766963 -0.01272731
0.072941117 0.67798841 -0.012515086
0.077921502 0.67738158 -0.012450195
0.082431652 0.67746192 -0.012447473
0.087101407 0.67690051 -0.01289975
0.093056567 0.67790526 -0.012234367
0.097439244 0.67730081 -0.011565068
0.10233071 0.67743415 -0.01178668
0.10758565 0.67771566 -0.01129535
0.11235376 0.67753571 -0.012667912
0.11771663 0.67770416 -0.01275993
0.1223052 0.67767626 -0.012718459
0.12751 0.67684871 -0.011362254
0.13281447 0.67743349 -0.01135534
0.13732669 0.67752796 -0.011825658
0.14244415 0.67786777 -0.011813471
0.14756295 0.6774388 -0.011799209
0.15235226 0.67798245 -0.012150259
0.15683363 0.67789674 -0.01114766
0.16291732 0.6775617 -0.01128902
0.16718234 0.67758304 -0.01196463
0.17276783 0.67742461 -0.012039968
0.17735592 0.67757857 -0.0124735
0.18265258 0.67751229 -0.011523764
0.18741326 0.67736775 -0.012265091
0.19216859 0.67746282 -0.0124239
0.1973267 0.67738318 -0.013183353
0.20226383 0.67741805 -0.013705612
0.20711672 0.67748654 -0.013443629
0.21236393 0.67754942 -0.012745517
0.21753547 0.67706764 -0.011665824
0.2213005 0.67699659 -0.013314656
-0.39761046 0.68242335 -0.01209611
-0.17170766 0.68276185 -0.010363556
-0.16792965 0.68241543 -0.010377094
-0.16151407 0.6831128 -0.010187024
-0.1566944 0.68175143 -0.010750528
-0.15233678 0.68212932 -0.010563143
-0.14737713 0.68239832 -0.010433449
-0.14254658 0.68181372 -0.010622447
-0.13760664 0.68297726 -0.01106164
-0.13193566 0.68171632 -0.011399307
-0.12734556 0.68264741 -0.011810813
-0.12274168 0.68265635 -0.011414115
-0.11714208 0.68270439 -0.01122795
-0.11230657 0.68237871 -0.011310641
-0.10729972 0.68250823 -0.012345375
-0.10238169 0.68189764 -0.012167571
-0.097575821 0.68231148 -0.011789971
-0.092260547 0.68246508 -0.012560328
-0.087594837 0.68290079 -0.01311313
-0.082337581 0.68195492 -0.013033922
-0.077241778 0.6832518 -0.013121357
-0.072461776 0.68247288 -0.012615899
-0.067873225 0.681584 -0.012282057
-0.062845469 0.68309772 -0.013159308
-0.057252258 0.68336916 -0.012928345
-0.052767128 0.68220997 -0.0126224
-0.047365993 0.68283576 -0.012267871
-0.042079858 0.68235439 -0.012894948
-0.037598386 0.68253124 -0.013163674
-0.032414723 0.68234491 -0.012789793
-0.027538711 0.68207783 -0.013073745
-0.022774728 0.68305391 -0.013652422
-0.017294219 0.68288684 -0.014288817
-0.012144182 0.68247497 -0.013854364
-0.0073657762 0.68277425 -0.013178747
-0.0020817842 0.68194234 -0.012776069
0.0030735147 0.68206728 -0.012306863
0.0077787926 0.68296075 -0.012865285
0.012021408 0.68199939 -0.012964724
0.017886406 0.68347228 -0.013791047
0.022445912 0.68319017 -0.013072055
0.027527736 0.68225336 -0.013053577
0.032857873 0.68229395 -0.013668075
0.037548307 0.68286437 -0.013683134
0.042894695 0.68270981 -0.013107318
0.047868565 0.68263298 -0.012287878
0.052637056 0.68264896 -0.011984165
0.057261698 0.68232578 -0.011677133
0.062310897 0.68214607 -0.013407932
0.068474837 0.68288165 -0.013415961
0.07244388 0.68256617 -0.01261345
0.077262916 0.68233204 -0.012700644
0.082308993 0.68216264 -0.01158725
0.087436378 0.68248379 -0.012575148
0.092859261 0.68207562 -0.011825717
0.097710371 0.68246597 -0.011356452
0.10264285 0.68226528 -0.011394689
0.10735888 0.68280447 -0.012344965
0.11249972 0.68251097 -0.013171526
0.11761536 0.6826883 -0.012477609
0.12259728 0.68256068 -0.012354488
0.12736045 0.6827693 -0.011517435
0.13267633 0.68238765 -0.011056649
0.13736531 0.68276149 -0.011881822
0.14264455 0.68253201 -0.012346777
0.14766429 0.68244588 -0.011946577
0.1524598 0.68242878 -0.011864003
0.15739305 0.68262011 -0.012043267
0.16242237 0.68264604 -0.01215506
0.16744807 0.68251956 -0.012821678
0.17249143 0.68237835 -0.012649462
0.17749768 0.68268001 -0.011905511
0.18248802 0.68250269 -0.012079413
0.18753517 0.68227386 -0.011670159
0.19254206 0.68252558 -0.011913166
0.1976371 0.68246865 -0.01229497
0.20268703 0.68264073 -0.012861239
0.20770001 0.68233317 -0.013527071
0.21282403 0.68308777 -0.013160802
0.21674183 0.68265915 -0.013108187
0.22181509 0.68083709 -0.014357652
-0.39803472 0.68768799 -0.011775717
-0.17555597 0.68834358 -0.010091979
-0.17162284 0.68781078 -0.010340954
-0.16751802 0.68756163 -0.010505393
-0.1633817 0.68734598 -0.01032477
-0.15750425 0.68663603 -0.010367867
-0.15198056 0.68679827 -0.010293358
-0.14622806 0.6887331 -0.010562659
-0.14252447 0.68759513 -0.010785098
-0.13734698 0.68709528 -0.010681252
-0.1321079 0.68731248 -0.010948799
-0.12694675 0.68781888 -0.011266297
-0.12237655 0.68672746 -0.011021332
-0.11755568 0.68792367 -0.011230893
-0.11196289 0.68815857 -0.010973225
-0.10752956 0.68729562 -0.01155714
-0.10240994 0.68713838 -0.012131146
-0.098095581 0.68715036 -0.011978121
-0.092406265 0.68775034 -0.012409182
-0.087711208 0.68803746 -0.012718393
-0.082847409 0.68663883 -0.012885449
-0.077838644 0.68707561 -0.013094276
-0.072408915 0.68823248 -0.013857743
-0.067169599 0.68767935 -0.013426178
-0.0623191 0.68746299 -0.013234119
-0.057580736 0.68809372 -0.012501191
-0.052790206 0.68720442 -0.012019471
-0.048148319 0.6875264 -0.012274077
-0.042635422 0.68758482 -0.012616231
-0.037678327 0.68672293 -0.013103889
-0.032564048 0.68765336 -0.013588083
-0.027110539 0.68733519 -0.013595236
-0.023051664 0.68741059 -0.013344551
-0.017731866 0.68746972 -0.013171441
-0.012700205 0.68655568 -0.013191028
-0.0069764871 0.68832958 -0.0135979
-0.0022480255 0.68728316 -0.01261936
0.0026545972 0.68678188 -0.012314279
0.0066999397 0.68695343 -0.012125127
0.012740397 0.68802869 -0.013807144
0.017356105 0.68776131 -0.013282598
0.02206843 0.68704528 -0.012837261
0.02735425 0.68723834 -0.012463765
0.033030961 0.68760258 -0.013143038
0.037373744 0.68715549 -0.013337527
0.042909682 0.68805611 -0.012445386
0.047139697 0.68727732 -0.01187943
0.052545816 0.6880517 -0.012380145
0.057805069 0.68732923 -0.01200607
0.062028274 0.68741542 -0.013074518
0.067461707 0.68732738 -0.012653315
0.072760522 0.68788683 -0.012335751
0.077225603 0.6874553 -0.012396822
0.082692921 0.6876446 -0.012078064
0.087607905 0.68682832 -0.011981901
0.092716239 0.68771923 -0.01177191
0.097619198 0.68727863 -0.011371024
0.10284533 0.68728787 -0.011515794
0.1076163 0.68736279 -0.011934488
0.11242188 0.68738443 -0.012107056
0.11690024 0.68705511 -0.011988876
0.12244797 0.68732899 -0.011626624
0.12749475 0.68762279 -0.011130841
0.13271983 0.68724525 -0.011423001
0.13744222 0.6873796 -0.011901421
0.14326248 0.68825293 -0.012162726
0.14767265 0.68728429 -0.011959547
0.15265068 0.68740392 -0.011953691
0.15755284 0.68731397 -0.011785259
0.16250861 0.68741316 -0.012426352
0.16755189 0.68776786 -0.012942632
0.1721905 0.68764251 -0.013049425
0.17774302 0.68765175 -0.012239894
0.18223037 0.68748707 -0.012432007
0.18757865 0.68766516 -0.01292017
0.19279905 0.68748683 -0.012077764
0.19737719 0.68658012 -0.011175497
0.20296456 0.68686157 -0.011216168
0.20748025 0.68710953 -0.012764186
0.21231042 0.68650651 -0.012529901
0.21579745 0.68722832 -0.012328384
-0.3986738 0.69294131 -0.012843794
-0.17613657 0.69204813 -0.010053182
-0.17184079 0.69207716 -0.010164171
-0.16725829 0.69188797 -0.010702457
-0.1637837 0.69203621 -0.010668
-0.15802714 0.69333881 -0.010437026
-0.15216489 0.69234747 -0.010548837
-0.14735025 0.69250071 -0.010902056
-0.14263006 0.6928646 -0.010614137
-0.13732328 0.69136095 -0.010654509
-0.13290522 0.69169873 -0.010395245
-0.12690262 0.69258177 -0.010698681
-0.12235319 0.69260073 -0.01145999
-0.1180683 0.69200951 -0.011271881
-0.11274812 0.69292819 -0.010992989
-0.10753351 0.69239652 -0.010996007
-0.1022603 0.69257784 -0.012262878
-0.097383052 0.69207418 -0.011844435
-0.092062205 0.69199628 -0.012145028
-0.087326385 0.69247925 -0.012585006
-0.082182355 0.69259816 -0.013662252
-0.077490412 0.69224697 -0.013383876
-0.072450534 0.69242007 -0.012946654
-0.06757389 0.69240946 -0.012322482
-0.062403146 0.69255978 -0.01146652
-0.057290554 0.69190425 -0.011172472
-0.052515563 0.69307655 -0.011276189
-0.047384955 0.69260842 -0.011776853
-0.042535178 0.69242448 -0.012768188
-0.037280817 0.69252932 -0.013526893
-0.032505035 0.69228142 -0.013227906
-0.027487276 0.69236481 -0.013153647
-0.022412514 0.69162858 -0.012898399
-0.017838474 0.69269031 -0.013579865
-0.01242412 0.69286704 -0.01375068
-0.0074015227 0.69227409 -0.013924088
-0.0023061843 0.69254559 -0.013147531
0.0022882929 0.69303918 -0.012430673
0.0075201043 0.69226837 -0.012646054
0.012152139 0.69210958 -0.012333936
0.017875291 0.69198531 -0.012384851
0.022728363 0.69214863 -0.012552386
0.027582796 0.69206834 -0.012298082
0.032731123 0.69203186 -0.012817027
0.038238458 0.69303381 -0.012068853
0.042477936 0.69270921 -0.012650176
0.047877166 0.69208163 -0.012614824
0.052166548 0.69263488 -0.012338099
0.057435896 0.6917423 -0.011869376
0.062118717 0.69236821 -0.012655971
0.067664266 0.69261885 -0.012646013
0.072895877 0.69203037 -0.012389284
0.077393845 0.69238722 -0.011812424
0.081844449 0.6930263 -0.011941953
0.086808503 0.69192022 -0.012003236
0.092732452 0.69288719 -0.011354032
0.097178847 0.69253713 -0.011790341
0.10236882 0.69272339 -0.011705146
0.10733595 0.69184417 -0.011278419
0.11247052 0.69223326 -0.011130187
0.11743402 0.69243544 -0.011699958
0.12252416 0.69254112 -0.012023923
0.12761977 0.6925211 -0.011416155
0.13261105 0.69244778 -0.012247523
0.13751985 0.69204694 -0.012082053
0.14177135 0.69264609 -0.01267958
0.14737809 0.69243896 -0.011482129
0.15243417 0.6926707 -0.011769954
0.15766093 0.6924848 -0.011852075
0.16262707 0.69285202 -0.013059845
0.16749866 0.69231355 -0.012612347
0.17278524 0.69252878 -0.011979676
0.17714515 0.69252014 -0.012416503
0.18243697 0.69273114 -0.013225994
0.18706472 0.69257689 -0.013278772
0.19237833 0.69229019 -0.013924271
0.19681162 0.6905815 -0.010705533
0.20562814 0.69025487 -0.013825607
-0.39810017 0.69747812 -0.012004726
-0.16744235 0.69818544 -0.010722768
-0.16210854 0.69704801 -0.011397081
-0.15722232 0.6978544 -0.010787101
-0.15284792 0.69762105 -0.010676595
-0.14686319 0.6973263 -0.01054763
-0.14221038 0.69717824 -0.01035195
-0.13778451 0.69799578 -0.010678149
-0.13318011 0.69793308 -0.01030086
-0.12707031 0.69814843 -0.010459321
-0.12272702 0.69780326 -0.011068523
-0.11753459 0.69702148 -0.011564917
-0.11295395 0.69777107 -0.011520198
-0.10718005 0.69755685 -0.011757676
-0.10278823 0.69815761 -0.012670138
-0.097298391 0.69798023 -0.013193306
-0.092671841 0.69737482 -0.01338826
-0.087641597 0.69762039 -0.013599955
-0.082180321 0.69795847 -0.013573544
-0.077815481 0.69710428 -0.012483725
-0.072701283 0.69672292 -0.01211379
-0.067915902 0.69810241 -0.01244174
-0.062729187 0.69809473 -0.012230144
-0.057545792 0.69710058 -0.011046635
-0.052271914 0.6972158 -0.010580463
-0.047284972 0.69796592 -0.011410341
-0.042323839 0.69702339 -0.011922207
-0.037276492 0.69762784 -0.01251148
-0.032771442 0.69683182 -0.012330079
-0.027536882 0.69773221 -0.012702256
-0.022011962 0.69706005 -0.013339939
-0.017661393 0.69694811 -0.013541172
-0.011980544 0.69862872 -0.014037917
-0.0071636299 0.69720411 -0.013703015
-0.0024422372 0.69745672 -0.013096098
0.002673351 0.69757545 -0.011938045
0.00703419 0.69741833 -0.011949469
0.012244611 0.69790202 -0.012650829
0.01720101 0.69691116 -0.012807076
0.022248428 0.69665158 -0.012643744
0.026881438 0.69816315 -0.01233214
0.032946233 0.69780368 -0.012239507
0.037555136 0.6976251 -0.012132726
0.042073019 0.69768047 -0.012128419
0.047526509 0.69696593 -0.012591453
0.052697655 0.69741911 -0.011585548
0.057600968 0.69682533 -0.012724917
0.062501557 0.69766659 -0.012664049
0.067747042 0.69760466 -0.012796786
0.072345324 0.69771719 -0.01253988
0.077443592 0.69696337 -0.012085735
0.082449757 0.69781518 -0.012156555
0.08763922 0.69715148 -0.012148152
0.092481658 0.69705939 -0.010875627
0.098110311 0.69735521 -0.010943445
0.1026939 0.69759768 -0.011019882
0.10693781 0.69764251 -0.011220578
0.11310602 0.69750673 -0.012151961
0.11725432 0.6973272 -0.01151743
0.12196444 0.69795883 -0.01159156
0.12791115 0.69747782 -0.011200195
0.13227332 0.69756049 -0.011535718
0.13754635 0.69752258 -0.011636539
0.14289708 0.69752717 -0.011692499
0.14733067 0.69764197 -0.012076842
0.15226057 0.69758373 -0.011930001
0.15725243 0.69713098 -0.012659733
0.16252783 0.69749075 -0.01230514
0.16737443 0.69757497 -0.012572583
0.17231347 0.69714725 -0.011939475
0.17765036 0.69744068 -0.011957384
0.18254183 0.6973834 -0.012764093
0.18731365 0.69734883 -0.012803826
0.19013643 0.69624209 -0.014892365
-0.4008922 0.703192 -0.013884046
-0.39851266 0.70233703 -0.012131556
-0.17676327 0.70380014 -0.010337429
-0.1717689 0.70262015 -0.010425664
-0.16717595 0.7024765 -0.011046549
-0.16203614 0.70265621 -0.011223463
-0.15742534 0.70259851 -0.010497136
-0.15231161 0.70218086 -0.010262961
-0.1453225 0.70400089 -0.010151165
-0.141671 0.70289731 -0.01069124
-0.13750431 0.70292521 -0.011288516
-0.13277605 0.70243555 -0.011029859
-0.12745234 0.7023744 -0.011021343
-0.12253705 0.70274824 -0.011353457
-0.1174758 0.70287633 -0.011296297
-0.11268277 0.70193088 -0.011296378
-0.10803591 0.70232844 -0.01198992
-0.10217775 0.70322406 -0.012999598
-0.097798347 0.70278305 -0.013401353
-0.092203766 0.70277065 -0.013723034
-0.087981917 0.70197195 -0.013080744
-0.082282461 0.70194876 -0.012690712
-0.07758496 0.70283806 -0.012149226
-0.072273135 0.70180559 -0.012342579
-0.067163996 0.70195991 -0.012521772
-0.061840206 0.70254612 -0.012687869
-0.057313673 0.70262492 -0.011697301
-0.052466355 0.70249087 -0.011372176
-0.047425255 0.70241165 -0.011284229
-0.042969391 0.70219111 -0.011918368
-0.037755772 0.70333976 -0.0129411
-0.032258857 0.70216757 -0.013371614
-0.027796132 0.7027263 -0.012541393
-0.022128096 0.70284468 -0.013523157
-0.017142776 0.70260018 -0.013844465
-0.012676006 0.70245695 -0.013281021
-0.0080423001 0.70135933 -0.013043301
-0.0030207585 0.70270723 -0.012914514
0.0025502027 0.7024861 -0.012841733
0.0073632193 0.70274884 -0.011706739
0.013250086 0.7022475 -0.012065482
0.018088052 0.70302922 -0.01224236
0.022629537 0.70167774 -0.012595229
0.027230255 0.70343864 -0.012573984
0.032530092 0.70228422 -0.012459209
0.038315177 0.70216399 -0.011887831
0.042084914 0.70307255 -0.012094672
0.047201212 0.70246625 -0.012258901
0.052311584 0.70234352 -0.011797914
0.058167659 0.7024737 -0.012689872
0.062778994 0.70325238 -0.012455189
0.067326143 0.70259047 -0.011423752
0.072603405 0.70248652 -0.011223725
0.077461772 0.70235127 -0.011640415
0.082167402 0.70217162 -0.011362453
0.08770337 0.70248973 -0.012040342
0.092185974 0.70226008 -0.011118134
0.097654514 0.7024802 -0.011198023
0.10225273 0.70241743 -0.010811424
0.10710937 0.70266449 -0.011049668
0.11311115 0.70219433 -0.011618338
0.11739267 0.70224029 -0.011827284
0.12267954 0.70291871 -0.011645001
0.12763232 0.70202309 -0.011487322
0.13226315 0.70306855 -0.011464601
0.13768032 0.70272964 -0.01207576
0.14268257 0.70259285 -0.012174836
0.14730233 0.70230848 -0.012023222
0.1527572 0.70266426 -0.012126198
0.15773074 0.70251536 -0.012906464
0.16255966 0.70247656 -0.012447414
0.16754988 0.70258939 -0.012784961
0.17212333 0.70225394 -0.012800944
0.17755161 0.70205992 -0.011286251
0.18231153 0.70280486 -0.012267318
0.18761633 0.70215112 -0.012851725
0.19036138 0.70319474 -0.013637563
-0.40140569 0.70781171 -0.013098675
-0.3985607 0.70706892 -0.011443612
-0.17714448 0.7065227 -0.010271164
-0.17215399 0.70691317 -0.010304299
-0.16695841 0.70692122 -0.010595117
-0.16235183 0.70649546 -0.010692692
-0.15777893 0.70831531 -0.010704949
-0.15013944 0.70944142 -0.010360123
-0.14764898 0.70628279 -0.010126695
-0.14215139 0.70718592 -0.010862838
-0.13741918 0.70715702 -0.011561693
-0.13301685 0.70834213 -0.0113418
-0.12770672 0.70749885 -0.011363368
-0.1220751 0.70757252 -0.011400112
-0.11743379 0.7069388 -0.011251432
-0.11240312 0.70750588 -0.011087017
-0.10735826 0.70718956 -0.011768335
-0.102539 0.70725197 -0.011439613
-0.097613379 0.70781475 -0.011812658
-0.092813998 0.70699078 -0.01230821
-0.087480441 0.70771199 -0.01307964
-0.082738087 0.70717978 -0.013351806
-0.077548422 0.70722014 -0.013062798
-0.072420806 0.70800066 -0.012758064
-0.067436293 0.70677489 -0.012819578
-0.062321376 0.7077902 -0.012271791
-0.057602875 0.70723957 -0.011464295
-0.052779499 0.70695162 -0.010874125
-0.047599152 0.7076211 -0.011898159
-0.041968808 0.70827496 -0.012558599
-0.037446916 0.70761919 -0.012679892
-0.032731254 0.70706624 -0.012513384
-0.027573273 0.70731121 -0.013028771
-0.02282705 0.70766997 -0.012779563
-0.017382486 0.70703834 -0.013088145
-0.012511652 0.70800775 -0.012832707
-0.0072989063 0.70692623 -0.013026008
-0.0024907845 0.70713496 -0.013021491
0.0028164308 0.70751429 -0.012587635
0.0069893906 0.70798725 -0.0122022
0.011984168 0.70674801 -0.011793874
0.017985782 0.70849872 -0.011733485
0.022573484 0.70734864 -0.011535615
0.02708254 0.70787656 -0.011403256
0.031369273 0.70740873 -0.012297468
0.037106194 0.7073527 -0.01264904
0.042575549 0.70760369 -0.011783708
0.047036998 0.70766085 -0.011925438
0.052762002 0.70777482 -0.012619103
0.058146674 0.70703608 -0.012195071
0.062805198 0.70793521 -0.011359502
0.067156345 0.70723647 -0.010923876
0.072447561 0.70728552 -0.01089734
0.077185728 0.70771742 -0.011197698
0.08294832 0.70719892 -0.012833947
0.08774633 0.70759737 -0.012202024
0.092828363 0.70762229 -0.011683583
0.097187445 0.70757055 -0.011351259
0.10225441 0.70753908 -0.010896257
0.10819008 0.70829368 -0.011589725
0.11269651 0.70772982 -0.011708142
0.11751417 0.70729786 -0.011814861
0.12217093 0.70726836 -0.011645836
0.12697041 0.70775175 -0.011907251
0.13263793 0.70810878 -0.01234333
0.13767654 0.70686966 -0.011574397
0.14264533 0.70812494 -0.012325955
0.14793612 0.70664352 -0.011798869
0.15245491 0.70777667 -0.012558674
0.15741645 0.70751822 -0.012179272
0.16219035 0.70776337 -0.012260064
0.16729893 0.70724893 -0.013142212
0.17248924 0.70764393 -0.013554933
0.17722467 0.70754945 -0.011968128
0.18284516 0.70724195 -0.011098425
0.18718807 0.70759439 -0.012946608
0.19099428 0.70713598 -0.013834593
-0.41099092 0.71289033 -0.014524885
-0.40600118 0.71255696 -0.014656796
-0.40176365 0.712758 -0.013724344
-0.39930964 0.71328145 -0.0118301
-0.16526173 0.71331781 -0.010415015
-0.16164559 0.71241778 -0.010526827
-0.15789616 0.71166366 -0.010504179
-0.15300888 0.71345866 -0.010449374
-0.14643812 0.71319306 -0.01064484
-0.14237781 0.71249068 -0.010504248
-0.13743675 0.7119326 -0.011155763
-0.13216969 0.71280462 -0.010860893
-0.12767018 0.7120353 -0.011294234
-0.12252654 0.71293539 -0.011697054
-0.11708393 0.71188235 -0.011780143
-0.11275446 0.71257406 -0.011061138
-0.10763397 0.71199238 -0.01101391
-0.10335044 0.71183908 -0.010564477
-0.096961938 0.71279293 -0.011605591
-0.092521049 0.7126112 -0.012393382
-0.087918669 0.71201789 -0.012346766
-0.082555793 0.71349555 -0.013290789
-0.077413991 0.71222675 -0.01327893
-0.072904035 0.71281135 -0.012019937
-0.067672811 0.7121498 -0.012184251
-0.06319268 0.71160865 -0.011646525
-0.057171639 0.71191603 -0.010769854
-0.052493736 0.71322685 -0.010488031
-0.047005247 0.71270078 -0.011182627
-0.042960607 0.71218485 -0.011945215
-0.037019547 0.71303785 -0.012235248
-0.0323961 0.71246058 -0.012009972
-0.027336726 0.71176237 -0.012427273
-0.022977337 0.71277952 -0.012732382
-0.017474469 0.711999 -0.012938919
-0.012511341 0.7125144 -0.012106806
-0.0076653794 0.7123192 -0.012589681
-0.0021181542 0.71264422 -0.012526546
0.0028021575 0.71230656 -0.012776958
0.0078135664 0.71342027 -0.012115102
0.012631722 0.71257323 -0.011831133
0.017110012 0.71218032 -0.011035432
0.023058308 0.71207309 -0.01110569
0.027097605 0.71259832 -0.011047375
0.032744613 0.71261519 -0.011441566
0.037212472 0.71204472 -0.01122804
0.043163814 0.71219623 -0.01176301
0.046996538 0.71273488 -0.011349386
0.052282818 0.71335167 -0.011691979
0.057618875 0.71217769 -0.01244207
0.062038347 0.71192062 -0.011571629
0.067576148 0.71181554 -0.011322791
0.073193125 0.71207124 -0.011167109
0.077632904 0.71272963 -0.011435197
0.082431972 0.71243185 -0.012911479
0.088236488 0.71288157 -0.01210435
0.092986606 0.7121616 -0.012003058
0.097443901 0.71263611 -0.011926937
0.10208564 0.71257865 -0.01171676
0.10783334 0.71294373 -0.011954524
0.11269616 0.71261132 -0.012126307
0.11735873 0.71276355 -0.012252147
0.12254661 0.71250206 -0.01182099
0.12745178 0.71252871 -0.012125373
0.13263163 0.712915 -0.011723392
0.13732778 0.71222162 -0.011859681
0.14175639 0.71241957 -0.011612955
0.14790435 0.71260113 -0.012067072
0.15213008 0.71267217 -0.012081607
0.15789337 0.71239567 -0.011630011
0.16244912 0.7127251 -0.012529274
0.16736393 0.71187174 -0.012908864
0.17231569 0.71293598 -0.012507364
0.17706211 0.71246129 -0.012179426
0.18226321 0.71186447 -0.011379618
0.18732467 0.71270734 -0.012145829
0.1910277 0.7126646 -0.013882084
-0.40659267 0.71857381 -0.013908133
-0.4018749 0.71814919 -0.013322598
-0.39958495 0.7170592 -0.011195398
-0.16587335 0.71710938 -0.01031942
-0.16251068 0.71726876 -0.010683613
-0.15721416 0.71752399 -0.011142926
-0.15296303 0.71817732 -0.011200069
-0.14728011 0.71772659 -0.010659329
-0.14279157 0.7177313 -0.010330918
-0.13778585 0.71681148 -0.010397458
-0.13348976 0.71666014 -0.010285654
-0.1270306 0.71771139 -0.011223023
-0.12249319 0.71785831 -0.011077815
-0.11721737 0.71693301 -0.011123899
-0.11314169 0.7169351 -0.010948267
-0.10731592 0.71705276 -0.01089335
-0.10205515 0.7174148 -0.011184133
-0.097344875 0.71739089 -0.011727256
-0.092647746 0.71762729 -0.012140147
-0.087460741 0.7176019 -0.012517171
-0.082463458 0.71846354 -0.012121037
-0.07745222 0.71694791 -0.011969122
-0.072999746 0.71744233 -0.01124055
-0.067365646 0.71744335 -0.012196454
-0.062386826 0.71721518 -0.012415855
-0.057664182 0.71736109 -0.011563391
-0.052918296 0.71756005 -0.010748821
-0.047584996 0.71756554 -0.010523041
-0.042351481 0.71723628 -0.010961383
-0.038054321 0.71705073 -0.010797954
-0.032534599 0.71707606 -0.010998943
-0.027084677 0.71782225 -0.012417474
-0.022858836 0.71738285 -0.012567987
-0.017309586 0.71798843 -0.013147145
-0.012367824 0.71770138 -0.01245121
-0.0079563065 0.71686089 -0.012000832
-0.0024500573 0.7184298 -0.011622699
0.0024453534 0.7168619 -0.011566563
0.006844087 0.7171663 -0.011052905
0.012118037 0.71658283 -0.011002958
0.017366096 0.71799362 -0.011514845
0.022803091 0.71838719 -0.010997145
0.027531696 0.71684283 -0.011245897
0.032826953 0.71764201 -0.011394683
0.038181406 0.7170074 -0.011304447
0.042322513 0.71734595 -0.011100119
0.047526583 0.7175144 -0.011202444
0.052243575 0.71748728 -0.011166831
0.058012046 0.71703148 -0.011724724
0.06298504 0.71678185 -0.012192208
0.067523673 0.71757817 -0.012733816
0.072906367 0.71755004 -0.013112214
0.077855043 0.71727479 -0.012090825
0.082669131 0.71788937 -0.011976908
0.087107979 0.71761644 -0.011823544
0.09226127 0.71712565 -0.011822709
0.097150624 0.71764618 -0.011964975
0.10238562 0.71738684 -0.011471334
0.107453 0.7178393 -0.012342406
0.11264812 0.71731633 -0.011725163
0.11723337 0.71755767 -0.011441995
0.1226164 0.71714079 -0.011834464
0.12744734 0.71714324 -0.011402526
0.13248594 0.71749896 -0.011931323
0.13745378 0.71724808 -0.012032622
0.14222153 0.71783614 -0.01193223
0.1474466 0.71765012 -0.012360562
0.15242714 0.71767986 -0.012231177
0.15725464 0.71734351 -0.012213983
0.16286755 0.71783292 -0.012697792
0.16756219 0.71722519 -0.01276397
0.17284948 0.71763307 -0.011528089
0.17735474 0.71721226 -0.011580547
0.18188386 0.71731645 -0.011583061
0.18848324 0.71706051 -0.011343413
0.19134875 0.71779829 -0.013151243
-0.40574223 0.7210964 -0.014254663
-0.40194812 0.72232437 -0.013414433
-0.39924979 0.72105372 -0.011148509
-0.1616098 0.72304428 -0.010663409
-0.15760162 0.72261196 -0.010746744
-0.15234204 0.72229421 -0.011137586
-0.14826789 0.72258961 -0.010806948
-0.14229088 0.72190422 -0.010507497
-0.13757442 0.72336924 -0.010545113
-0.13249746 0.72207046 -0.010629002
-0.12718219 0.72259992 -0.010605685
-0.12237275 0.72269416 -0.010596139
-0.1174293 0.72233987 -0.010802392
-0.11240407 0.72251576 -0.011347496
-0.10763807 0.72202772 -0.011064407
-0.10315897 0.72135025 -0.010973059
-0.097982034 0.72278494 -0.010858978
-0.092549503 0.7227459 -0.011476162
-0.087466612 0.72214025 -0.01134401
-0.082671665 0.72268504 -0.011065551
-0.077289902 0.7224468 -0.011341817
-0.07279107 0.72268796 -0.011629091
-0.067784816 0.72215241 -0.01210653
-0.063096941 0.72169304 -0.011872636
-0.057533443 0.72303897 -0.011249244
-0.052744668 0.72225875 -0.010968087
-0.047860015 0.72266644 -0.010682967
-0.042631593 0.72151101 -0.010358898
-0.038087793 0.72318691 -0.010628446
-0.032688603 0.72230589 -0.011154933
-0.027843283 0.72263664 -0.01141601
-0.022528784 0.72239631 -0.012627412
-0.01752069 0.72325432 -0.012921306
-0.012525194 0.7232759 -0.011822378
-0.0076936446 0.72170144 -0.011620462
-0.0029162564 0.72238261 -0.011105216
0.0029264297 0.72199619 -0.010944356
0.0075479252 0.72309572 -0.01152445
0.012747481 0.72238594 -0.011145097
0.017432394 0.72191006 -0.01106251
0.022535721 0.72285879 -0.01094898
0.027666131 0.72208071 -0.011676322
0.03271265 0.72288489 -0.011765379
0.037402537 0.72231042 -0.012273757
0.042701121 0.72248793 -0.011050243
0.047602043 0.72178859 -0.011108139
0.051789969 0.72226757 -0.010874525
0.056956142 0.721964 -0.011292547
0.061913691 0.72274399 -0.012291312
0.067320183 0.72213167 -0.01312818
0.072829135 0.72233707 -0.012964103
0.077988163 0.72278064 -0.011831757
0.082061671 0.72250038 -0.011858684
0.08787518 0.72226912 -0.011831981
0.092515908 0.72262478 -0.01211808
0.097395174 0.72279692 -0.011738752
0.10237891 0.72278363 -0.011594108
0.10757093 0.72230911 -0.011485735
0.11211628 0.72158843 -0.010780503
0.11757525 0.72231197 -0.010838289
0.12249514 0.72243989 -0.011404337
0.12842204 0.72218025 -0.011904887
0.13255763 0.72275871 -0.012022668
0.13730094 0.7225396 -0.011368511
0.14265162 0.72297841 -0.011942989
0.14770322 0.72219962 -0.011702725
0.15301023 0.72307312 -0.012000411
0.15782066 0.72209108 -0.01214117
0.16271333 0.72288883 -0.012409552
0.16765466 0.72245902 -0.011871171
0.1724982 0.72261947 -0.012071274
0.17776865 0.72269237 -0.01160411
0.18239567 0.72327906 -0.012447569
0.1874377 0.72257441 -0.011014942
0.19171898 0.72298872 -0.012964179
-0.4007085 0.72801477 -0.014194692
-0.39866084 0.72744 -0.013534491
-0.21769893 0.72725719 -0.010126863
-0.16008933 0.72602636 -0.010392467
-0.15687229 0.72707486 -0.010997669
-0.15238878 0.72707003 -0.010810733
-0.1478741 0.72775751 -0.011163408
-0.14286965 0.7267043 -0.010696544
-0.13610052 0.72636759 -0.01027916
-0.13187273 0.72661048 -0.010247623
