# .PCD v0.7 - Point Cloud Data file format
VERSION 0.7
FIELDS x y z
SIZE 4 4 4
TYPE F F F
COUNT 1 1 1
WIDTH 1417
HEIGHT 1
VIEWPOINT 0 0 0 1 0 0 0
POINTS 1417
DATA ascii
0.041369446 1.0463974 -0.35224777
0.046868756 1.0489424 -0.35170108
0.052709054 1.0463121 -0.35061324
0.062683195 1.0476096 -0.3520616
0.066558346 1.0462447 -0.3507745
0.072720915 1.0488858 -0.35348719
0.077946529 1.046245 -0.35294074
0.087712519 1.0493053 -0.3519479
0.091760568 1.0475737 -0.35105786
0.095809102 1.0453218 -0.35094014
0.10268886 1.0486485 -0.35202086
0.10869563 1.0458417 -0.35105282
0.11737087 1.0487986 -0.35313168
0.12204512 1.0462426 -0.35293055
0.12937449 1.0498396 -0.35322481
0.13290557 1.047909 -0.35307288
0.13697748 1.046743 -0.35132164
0.14481114 1.0491335 -0.3549619
0.14824834 1.0485463 -0.35289395
0.15227383 1.0469913 -0.35176072
0.15694216 1.0469871 -0.35174304
0.16286577 1.0480728 -0.35300153
0.16668019 1.0464827 -0.35210109
0.17748539 1.0488319 -0.35326067
0.18197152 1.0470443 -0.35207918
0.18590899 1.0452043 -0.3514446
-0.8227455 1.0538813 -0.35358366
-0.27614063 1.0540028 -0.35057366
-0.20523228 1.0535955 -0.35006297
-0.20230541 1.0510015 -0.35141331
-0.19626155 1.0543965 -0.35112268
-0.19218336 1.0519208 -0.35131234
-0.18696737 1.0529078 -0.35133824
-0.18303338 1.0533463 -0.35129085
-0.17784882 1.050976 -0.35037753
-0.15545389 1.0524631 -0.35084242
-0.15165633 1.0505037 -0.35050493
-0.14709441 1.0536913 -0.35179049
-0.14307289 1.0514586 -0.35166734
-0.13371241 1.0532988 -0.35084954
-0.1214236 1.0541748 -0.35094416
-0.11746223 1.051602 -0.35137823
-0.11436272 1.0503139 -0.35064033
-0.1066429 1.0522319 -0.35111064
-0.10283527 1.0520079 -0.3521558
-0.096529774 1.053113 -0.35305893
-0.092731811 1.0515269 -0.35216641
-0.089173727 1.0523734 -0.35117301
-0.082683273 1.0533015 -0.35085768
-0.079348028 1.0513875 -0.35084802
-0.071162194 1.05414 -0.35166439
-0.066971958 1.0518488 -0.35148412
-0.064212874 1.0507023 -0.35082731
-0.056130491 1.0528958 -0.35256293
-0.053050999 1.0520304 -0.35121411
-0.046992328 1.0539678 -0.35307664
-0.042386401 1.0522407 -0.35170263
-0.026157219 1.0512333 -0.35122466
-0.023317663 1.0502921 -0.35019386
-0.017546823 1.0549079 -0.35030752
-0.013266495 1.0519778 -0.35099965
-0.0056541855 1.0543487 -0.35287374
-0.0024297643 1.0526474 -0.35264331
0.0016904591 1.0503327 -0.35255769
0.0082712453 1.0541104 -0.35322389
0.012407186 1.05208 -0.35270256
0.016937789 1.0505495 -0.35110077
0.023308177 1.053315 -0.35345066
0.026670547 1.052691 -0.35150167
0.031690802 1.0529361 -0.35279709
0.03797162 1.0534946 -0.35254866
0.04281358 1.0510347 -0.35206145
0.052604802 1.0542514 -0.35081476
0.056343887 1.052207 -0.35065386
0.062665939 1.052506 -0.3527405
0.067559682 1.0525916 -0.35239634
0.07274963 1.0507636 -0.35067254
0.079187147 1.0528892 -0.35391611
0.082626089 1.0518543 -0.35242847
0.086488217 1.0525573 -0.35213298
0.092929207 1.0542333 -0.35207182
0.097513229 1.0516695 -0.35195974
0.10010105 1.050159 -0.35199031
0.11164065 1.0523157 -0.35280767
0.11967195 1.0543735 -0.35478851
0.12240779 1.0539062 -0.3531425
0.12748171 1.0509849 -0.35314253
0.13067885 1.051055 -0.3503032
0.13775785 1.0543859 -0.35319173
0.14216223 1.0521604 -0.35253346
0.14662795 1.0507681 -0.35110351
0.15296811 1.0541877 -0.35170195
0.15690006 1.0521567 -0.35203692
0.16143061 1.050415 -0.35074922
0.16830336 1.0540483 -0.35336503
0.17240489 1.0521318 -0.35270402
0.17600083 1.0512743 -0.35090193
0.18248039 1.0539885 -0.35323453
0.18746769 1.05172 -0.35233873
-0.82143116 1.055869 -0.35184532
-0.20504749 1.0597789 -0.3506414
-0.20252904 1.0580549 -0.35104862
-0.19816467 1.0560155 -0.35034522
-0.19113615 1.0580091 -0.3512944
-0.18749347 1.0571015 -0.35200769
-0.1816521 1.0588189 -0.35190186
-0.17885216 1.0581449 -0.35050803
-0.15511894 1.0586334 -0.35131183
-0.1517901 1.057078 -0.35077536
-0.14902464 1.0565999 -0.35242805
-0.14228234 1.0577824 -0.35151914
-0.13756949 1.0559392 -0.3502259
-0.13106807 1.0598043 -0.35083026
-0.127222 1.05782 -0.35048848
-0.12400718 1.0559435 -0.35052642
-0.1161522 1.0575209 -0.35138708
-0.11390474 1.0564706 -0.35102487
-0.10562113 1.0586824 -0.35256097
-0.10217607 1.0569782 -0.352146
-0.097700931 1.0553212 -0.35077974
-0.090973437 1.0572938 -0.35201773
-0.088619851 1.0566678 -0.35093457
-0.077142775 1.0577723 -0.35138366
-0.074024536 1.0564294 -0.35071138
-0.066471621 1.0587323 -0.35273764
-0.061908402 1.0568867 -0.35157594
-0.056934793 1.0577421 -0.35200459
-0.052779607 1.0576801 -0.35251161
-0.046199013 1.055421 -0.35023868
-0.042753141 1.0590849 -0.35375601
-0.036541916 1.0573397 -0.35103548
-0.033258528 1.0560946 -0.35007644
-0.011172544 1.0583289 -0.35168073
-0.0079242084 1.0565774 -0.35150427
-0.0026511829 1.0580347 -0.35276747
0.0028131257 1.0566609 -0.35410354
0.0056022583 1.0552598 -0.35379925
0.01285055 1.0593508 -0.35342875
0.017206511 1.0574921 -0.35246405
0.021476569 1.0557177 -0.35144758
0.028755931 1.0590341 -0.35220161
0.032311946 1.0570272 -0.35214156
0.036336191 1.05564 -0.35076007
0.043486334 1.0579178 -0.35316771
0.047741123 1.0567224 -0.35130414
0.054704648 1.0594944 -0.35313705
0.05807475 1.0586362 -0.35152909
0.062643096 1.0557849 -0.35185766
0.068758614 1.059162 -0.35351706
0.072385475 1.0582385 -0.35178655
0.07636375 1.0562081 -0.35140011
0.084020071 1.0590794 -0.35249305
0.088024579 1.0572082 -0.35184765
0.091782264 1.0558538 -0.35064521
0.099331856 1.0594301 -0.35276669
0.10298482 1.0583287 -0.35127813
0.10657701 1.0560446 -0.35159904
0.11357482 1.0592502 -0.3527585
0.11730734 1.056695 -0.35336202
0.13285314 1.0573198 -0.35302836
0.13683437 1.0562127 -0.35139257
0.14328173 1.0587298 -0.35258591
0.14759029 1.0574361 -0.35218561
0.1510396 1.0555776 -0.35196769
0.15978304 1.0598811 -0.35198736
0.16274345 1.0580488 -0.35217714
0.16780518 1.0555924 -0.35149679
0.17495087 1.0584986 -0.35297462
0.17749853 1.0571842 -0.35274819
0.18198454 1.0558317 -0.35092014
-0.83021283 1.0637143 -0.35312521
-0.82758373 1.0641191 -0.35384011
-0.27527943 1.0600497 -0.3507762
-0.20049156 1.0639375 -0.35048908
-0.19732217 1.0615774 -0.35128447
-0.19183409 1.0628145 -0.35132271
-0.18754308 1.0629048 -0.35087043
-0.18389516 1.0608325 -0.35082895
-0.17823924 1.064219 -0.35286736
-0.1744996 1.0635802 -0.35061744
-0.15768014 1.0603868 -0.35089773
-0.15258551 1.0634218 -0.3519541
-0.14776739 1.060984 -0.35145435
-0.14096946 1.0641505 -0.35284305
-0.13812894 1.0636652 -0.35113406
-0.13365164 1.061573 -0.35041249
-0.12721756 1.0636309 -0.35177469
-0.12099344 1.0603467 -0.35132989
-0.11909229 1.0600219 -0.35018608
-0.10666494 1.060869 -0.35020512
-0.081207812 1.0603572 -0.35102049
-0.075976327 1.0637473 -0.35341692
-0.071775302 1.06286 -0.35114139
-0.067176893 1.063264 -0.35322356
-0.062859885 1.0630338 -0.35318053
-0.058531262 1.0610685 -0.35239735
-0.051481023 1.0642241 -0.35358641
-0.047587357 1.0628957 -0.35222939
-0.042488288 1.0604078 -0.35156393
-0.0068358462 1.0635487 -0.35212377
-0.0033965297 1.0614202 -0.35234424
0.0041016857 1.0639105 -0.35413831
0.0073550651 1.0625587 -0.35336387
0.011104844 1.0616691 -0.35147744
0.018451607 1.0642931 -0.35320267
0.023066564 1.0619886 -0.35267884
0.026603771 1.0606613 -0.351625
0.032651551 1.0644078 -0.35279366
0.038013771 1.0616643 -0.35228288
0.041387528 1.060385 -0.35129744
0.048454575 1.063543 -0.35246816
0.0522172 1.0619366 -0.35163644
0.057876125 1.0631661 -0.35290766
0.062991463 1.0634567 -0.35206971
0.066586152 1.0613768 -0.35208458
0.07890489 1.0632772 -0.35063165
0.081293106 1.0612072 -0.35166427
0.093757503 1.0632461 -0.35186538
0.097658545 1.0616252 -0.35093674
0.10842669 1.0631258 -0.35140398
0.1109 1.0609057 -0.35258704
0.12286673 1.0620372 -0.35456213
0.13308343 1.0639684 -0.35486159
0.13710627 1.0631491 -0.35263741
0.14108747 1.0611491 -0.35220307
0.1488985 1.0646589 -0.35420001
0.15349689 1.0625191 -0.35188791
0.15745443 1.0611545 -0.35208759
0.1643032 1.0647137 -0.35284886
0.1672501 1.0632334 -0.35252744
0.17236434 1.0606989 -0.35191804
0.18287095 1.0634332 -0.35276127
0.18570499 1.0622126 -0.35215029
-0.83257174 1.0651468 -0.35037595
-0.82994258 1.0655516 -0.35109085
-0.2920692 1.0692302 -0.35149866
-0.24328035 1.0686715 -0.35044217
-0.20302019 1.0656686 -0.35008022
-0.19712874 1.0677887 -0.35181418
-0.19337243 1.0663644 -0.35071701
-0.18636774 1.0690151 -0.35269484
-0.1830586 1.0683187 -0.35089871
-0.17892043 1.0656459 -0.35132992
-0.15673801 1.0664796 -0.35096297
-0.15121584 1.0692191 -0.35407734
-0.14774406 1.0686262 -0.35198855
-0.14239149 1.0662184 -0.35098696
-0.13217422 1.0666986 -0.351457
-0.12877473 1.0656736 -0.3500717
-0.080994889 1.0686743 -0.35038933
-0.077649176 1.0653896 -0.35240769
-0.071642593 1.0688465 -0.35205707
-0.067843638 1.0667448 -0.35192984
-0.060947828 1.0690336 -0.35453892
-0.057576146 1.0682297 -0.35284919
-0.05306251 1.0659275 -0.35240835
-0.046718955 1.0692374 -0.35397258
-0.042957634 1.068526 -0.35181171
-0.029123347 1.0694032 -0.35058254
-0.01149544 1.0669645 -0.3510347
-0.0020461574 1.0691403 -0.35162696
0.0014797351 1.066216 -0.35295576
0.0053652497 1.0650878 -0.35130805
0.012489253 1.068033 -0.35274667
0.017379055 1.0661558 -0.35135275
0.022921342 1.0691626 -0.35405266
0.027132805 1.067906 -0.3525064
0.033335719 1.068796 -0.35362744
0.038093828 1.0684509 -0.35403937
0.043070331 1.066424 -0.35279363
0.04645915 1.0651391 -0.35180381
0.053574692 1.0695565 -0.35106194
0.056832638 1.0670146 -0.35205212
0.061119638 1.065431 -0.3507373
0.073852658 1.0660397 -0.35084906
0.083353035 1.0693194 -0.35174248
0.086789548 1.0680163 -0.3507387
0.090970322 1.0651542 -0.35141471
0.097091168 1.0687776 -0.35270366
0.10250181 1.0666549 -0.35122913
0.11233152 1.0688963 -0.35338348
0.11686377 1.0666765 -0.35280439
0.12460582 1.0697718 -0.35349083
0.12823029 1.0685346 -0.35223335
0.13246237 1.0665338 -0.35210752
0.14328888 1.0689001 -0.35269713
0.14728807 1.0668308 -0.35235062
0.15223454 1.0673964 -0.35175791
0.15790164 1.0687381 -0.35234571
0.16202044 1.0671972 -0.35111186
0.172903 1.0688176 -0.35328802
0.17784631 1.0670527 -0.3516815
0.18140511 1.0651561 -0.35145503
0.18731286 1.0689763 -0.35461873
-0.83612055 1.0725441 -0.35294348
-0.8318345 1.0738809 -0.3533144
-0.82743013 1.0745589 -0.35451198
-0.29242447 1.0747888 -0.35148275
-0.20538847 1.0736343 -0.35019454
-0.20251071 1.0711863 -0.3513701
-0.19660376 1.0739092 -0.35417983
-0.19228314 1.0729526 -0.35190496
-0.18798158 1.0707512 -0.35149604
-0.17936306 1.0733016 -0.35025772
-0.16508035 1.0718677 -0.35009366
-0.15718788 1.0744424 -0.35142526
-0.15303522 1.0718157 -0.3517755
-0.14770502 1.0742377 -0.35354128
-0.14319383 1.0732005 -0.35122317
-0.10345951 1.0736107 -0.3503637
-0.092435077 1.0740203 -0.35223305
-0.088211559 1.0726204 -0.35069984
-0.080478504 1.0748953 -0.35062838
-0.077498585 1.0718572 -0.3525933
-0.072061352 1.072885 -0.35236907
-0.066647492 1.073838 -0.35227641
-0.062546961 1.0715168 -0.35221735
-0.058254551 1.0713716 -0.35273063
-0.052237019 1.0733094 -0.35264283
-0.048396554 1.0715659 -0.35194799
-0.044831 1.070564 -0.35038623
-0.036467988 1.0734191 -0.35089859
-0.031810764 1.0712428 -0.35014802
-0.022472978 1.073463 -0.35077018
-0.016984206 1.0702137 -0.35090244
-0.010181719 1.0747097 -0.35031152
-0.0084637199 1.0730231 -0.35134792
-0.0047580162 1.0709968 -0.35118848
0.0031406183 1.0731429 -0.35315177
0.0071521541 1.0706764 -0.3533847
0.017702542 1.0730666 -0.35271671
0.02260074 1.0707989 -0.35189575
0.028414166 1.0738699 -0.35426831
0.03218561 1.0725018 -0.35207263
0.036199089 1.0711279 -0.35168263
0.04256567 1.0738013 -0.35417315
0.047509618 1.0722291 -0.35227939
0.051311202 1.0707943 -0.35115933
0.058437586 1.0740867 -0.35208005
0.06165278 1.0733473 -0.35042787
0.092238627 1.0723631 -0.35152745
0.095224902 1.0700552 -0.35240188
0.10410907 1.0748782 -0.35152915
0.10804781 1.0725791 -0.35157567
0.11179869 1.0706736 -0.35119829
0.11842742 1.0731502 -0.35375667
0.12266764 1.0715547 -0.35249987
0.1268755 1.0719445 -0.35124716
0.13354407 1.0739937 -0.35346529
0.13744016 1.0724174 -0.35186121
0.14111565 1.0709493 -0.35151145
0.14776176 1.0738895 -0.35336599
0.15241235 1.0718415 -0.35188216
0.15679154 1.070393 -0.35083634
0.16245708 1.073961 -0.3529062
0.16744791 1.072808 -0.35289776
0.17175481 1.0712228 -0.35069659
0.17892677 1.0743557 -0.35380006
0.18251044 1.0733486 -0.3522304
0.18615896 1.0713935 -0.35201442
-0.84369701 1.0788974 -0.35491312
-0.29398641 1.0763223 -0.35054049
-0.22628072 1.0787357 -0.35056344
-0.2167266 1.0794841 -0.35120219
-0.21486574 1.0791662 -0.35008264
-0.20199774 1.0780134 -0.352696
-0.19820847 1.0762428 -0.35208526
-0.19142696 1.0793099 -0.35165071
-0.18807018 1.0782979 -0.35028285
-0.18380153 1.0753756 -0.35097304
-0.17656398 1.0777926 -0.35111418
-0.1663724 1.0791086 -0.3523494
-0.16254984 1.077659 -0.35123286
-0.15931153 1.0752476 -0.35204557
-0.15142369 1.0777601 -0.3514888
-0.14782728 1.0755911 -0.35163495
-0.12573682 1.0784649 -0.3503001
-0.10193978 1.0790355 -0.35291234
-0.097222678 1.0766019 -0.35249314
-0.092129089 1.0785112 -0.35380489
-0.087393843 1.0776331 -0.35247645
-0.083069101 1.0753379 -0.35218701
-0.077102326 1.07909 -0.3534168
-0.072891362 1.0776657 -0.35193053
-0.068476751 1.0757922 -0.35093766
-0.060700011 1.0773981 -0.35380742
-0.057811957 1.0766299 -0.35247833
-0.05481746 1.0763931 -0.35026827
-0.0464314 1.07771 -0.35304666
-0.042200178 1.0763313 -0.35147539
-0.032082316 1.078618 -0.35133103
-0.02706187 1.0760961 -0.35078341
-0.021568546 1.0794414 -0.35302219
-0.017371196 1.0769211 -0.35241452
-0.013651706 1.0758599 -0.35157117
-0.0063359239 1.0797235 -0.3514809
-0.0030678881 1.0783656 -0.35070294
0.0011088712 1.0756527 -0.35116056
0.0075335787 1.0783516 -0.35356331
0.012146845 1.0758597 -0.3533195
0.019161385 1.0796866 -0.35354111
0.022942027 1.0777572 -0.35317382
0.027326649 1.0758711 -0.35222518
0.034197778 1.0793909 -0.35302606
0.037406005 1.0781208 -0.35216874
0.042257261 1.075745 -0.35154891
0.049455412 1.0780427 -0.35388571
0.052633327 1.0776424 -0.35176215
0.05592306 1.0762256 -0.35105288
0.067374215 1.0792085 -0.35071826
0.073273242 1.0756949 -0.35089236
0.081227921 1.0796373 -0.35013866
0.098717526 1.0772448 -0.35262519
0.10167109 1.0760175 -0.35192209
0.10840523 1.0797982 -0.3524524
0.11188944 1.0784771 -0.35143471
0.11656713 1.0759844 -0.35113701
0.12381339 1.0791578 -0.35411659
0.12743469 1.0773033 -0.35260868
0.13124888 1.0767403 -0.35115114
0.14201926 1.0776058 -0.35275665
0.14581162 1.0762986 -0.35145479
0.15828499 1.0772057 -0.35333017
0.16261482 1.0762205 -0.35108989
0.16868556 1.0795586 -0.35483047
0.17271768 1.0778831 -0.35387063
0.17678802 1.0763983 -0.35259458
0.18001264 1.0761435 -0.35021472
-0.84591621 1.0814583 -0.35090262
-0.84272891 1.081949 -0.3517693
-0.23664668 1.0844038 -0.35100949
-0.22146523 1.0822501 -0.35114622
-0.2192654 1.0812222 -0.35079169
-0.2028591 1.0814676 -0.35078156
-0.19742541 1.0829662 -0.35134956
-0.19336239 1.0809563 -0.35086012
-0.18170671 1.0813133 -0.35028267
-0.17601687 1.084738 -0.35223547
-0.17265891 1.083169 -0.35169429
-0.16812412 1.0809562 -0.35110247
-0.16236551 1.0837855 -0.35189644
-0.15779267 1.0819573 -0.35070086
-0.14748728 1.0839086 -0.35089472
-0.14192882 1.0810846 -0.35033545
-0.13027056 1.0805835 -0.35103077
-0.12109663 1.0833753 -0.35094327
-0.11878933 1.0816309 -0.35156143
-0.10672881 1.0831094 -0.35095605
-0.10227519 1.0811728 -0.35200849
-0.097681306 1.0834054 -0.35270062
-0.093452744 1.0817809 -0.35149682
-0.086936288 1.0844182 -0.35391265
-0.082463637 1.0825596 -0.35284796
-0.078827895 1.0812739 -0.35164791
-0.071816318 1.0843365 -0.35300788
-0.067707188 1.0829147 -0.35160533
-0.064135127 1.0817643 -0.35025847
-0.055814486 1.0836275 -0.35228124
-0.052814022 1.0820794 -0.3520146
-0.04918747 1.0811146 -0.35034558
-0.042357013 1.0836624 -0.35262588
-0.036464624 1.0815165 -0.35077351
-0.026739536 1.0833898 -0.35157919
-0.023286544 1.0811281 -0.35198575
-0.016633233 1.0837206 -0.35357818
-0.012418685 1.0828619 -0.35202152
-0.0090599926 1.0815883 -0.35104045
-0.0011416716 1.0845194 -0.35182035
0.0027295516 1.0819838 -0.35227621
0.0070050471 1.0803162 -0.35109636
0.013344236 1.0831515 -0.35336944
0.017093327 1.0812502 -0.35298702
0.022227554 1.0834183 -0.35331294
0.027474521 1.0833526 -0.35289153
0.032361142 1.0809025 -0.35235152
0.038733911 1.0848604 -0.35292786
0.042078812 1.0837191 -0.35176215
0.046958264 1.0813186 -0.3511548
0.050377201 1.0800221 -0.35015616
0.059756927 1.0833735 -0.35104603
0.064587034 1.0811166 -0.35026759
0.073826432 1.0832987 -0.35103029
0.10413437 1.0834315 -0.35070777
0.10682213 1.0815204 -0.35124779
0.11840291 1.0836257 -0.35210672
0.1213041 1.0814104 -0.3529163
0.12661652 1.0826108 -0.35207802
0.13093403 1.0843353 -0.35224095
0.13939388 1.0806919 -0.35041708
0.14739276 1.0838528 -0.35277188
0.15150127 1.08131 -0.35303521
0.16359504 1.0841281 -0.35239559
0.16669959 1.0823644 -0.35236025
0.17002785 1.0808092 -0.3518239
0.17769954 1.083552 -0.35309476
0.18183798 1.0821196 -0.35168278
-0.8495872 1.0891315 -0.35469764
-0.24624586 1.0858263 -0.35043278
-0.23662588 1.0875522 -0.35127574
-0.23178844 1.0880197 -0.35140479
-0.22789639 1.0861747 -0.35081658
-0.21701188 1.08788 -0.35088
-0.21352595 1.085974 -0.35073
-0.20548443 1.0882905 -0.35033306
-0.20332104 1.0861664 -0.3516382
-0.19576168 1.0889984 -0.35088745
-0.19170496 1.086544 -0.35106382
-0.1887342 1.0851558 -0.35058504
-0.181485 1.0879951 -0.35207409
-0.17785634 1.0874727 -0.35116374
-0.17152244 1.0884671 -0.35277402
-0.16774487 1.0865892 -0.35233274
-0.16358101 1.0860896 -0.35189459
-0.15782247 1.0890211 -0.35213968
-0.15203889 1.0868282 -0.3504504
-0.14526893 1.0898659 -0.35006937
-0.1413447 1.0871794 -0.3507039
-0.1309083 1.0891025 -0.3508274
-0.1274399 1.0863156 -0.35200092
-0.122016 1.0870655 -0.3522014
-0.1172545 1.0887737 -0.35154411
-0.11250216 1.0862663 -0.35120451
-0.10350727 1.0870003 -0.35234284
-0.095385291 1.0885977 -0.35493043
-0.092404477 1.0883621 -0.35273054
-0.088077068 1.0866028 -0.35164231
-0.084914729 1.0854409 -0.35066372
-0.076215461 1.0872641 -0.35242128
-0.074000016 1.0869347 -0.35101545
-0.065953456 1.0889492 -0.35304764
-0.061861191 1.0877668 -0.35130355
-0.058188863 1.0857589 -0.35114554
-0.051522009 1.0889926 -0.35254651
-0.047240265 1.0863518 -0.35280725
-0.042715766 1.0871433 -0.3517302
-0.036437549 1.0885992 -0.3521353
-0.032483377 1.0865306 -0.35182634
-0.029704098 1.0850108 -0.35170674
-0.021906532 1.0883312 -0.3520115
-0.017503116 1.0858296 -0.35196143
-0.014508123 1.085318 -0.35015953
-0.0069019096 1.0872606 -0.35267508
-0.0032094165 1.0862784 -0.35097572
0.0038936145 1.0884137 -0.3536354
0.006908291 1.087428 -0.35252097
0.010548929 1.0861 -0.35137963
0.018133665 1.0887626 -0.35284391
0.022182073 1.0866528 -0.35251555
0.028761903 1.0880944 -0.35287496
0.032600779 1.0881099 -0.35334668
0.03642264 1.0869647 -0.35177845
0.040025938 1.0860642 -0.35003388
0.048331007 1.0896212 -0.3515377
0.053180087 1.0869313 -0.3513861
0.056969743 1.0852816 -0.35059536
0.063174866 1.0888336 -0.35191843
0.066859722 1.0873652 -0.35094798
0.070777856 1.085737 -0.35001525
0.081226781 1.088424 -0.35097778
0.085164867 1.0867875 -0.35004029
0.093240276 1.0896478 -0.35079086
0.10753109 1.0892348 -0.35307291
0.11226332 1.0873321 -0.35185176
0.11962186 1.0899312 -0.3536036
0.12332911 1.0881989 -0.35300615
0.12762791 1.0861212 -0.35241565
0.14334129 1.0866803 -0.3520366
0.14643593 1.0858569 -0.35061234
0.15428139 1.0894192 -0.35250145
0.15716222 1.0874472 -0.35296726
0.16119435 1.0857717 -0.35200745
0.16829842 1.0886259 -0.353598
0.17275724 1.0869352 -0.35229561
0.17668591 1.0853351 -0.35131219
0.18362054 1.0890311 -0.35378188
0.1887552 1.0871582 -0.35217223
-0.8465727 1.0918761 -0.35284039
-0.84301096 1.0932716 -0.3528147
-0.24008077 1.0926039 -0.35168737
-0.23741575 1.0914965 -0.35105297
-0.23120928 1.0942372 -0.35357988
-0.22840455 1.0937581 -0.35189247
-0.20090443 1.092519 -0.3500559
-0.19833307 1.0907587 -0.35047168
-0.1920675 1.0935857 -0.35282037
-0.18710871 1.0919422 -0.35102025
-0.18190758 1.0933363 -0.35243854
-0.1775143 1.0927886 -0.35147867
-0.17262813 1.091223 -0.3516098
-0.16685465 1.0932419 -0.35359538
-0.16292752 1.0917526 -0.35244828
-0.1589295 1.0921358 -0.35093996
-0.15241884 1.0937754 -0.35037705
-0.1471865 1.0901935 -0.35122308
-0.14007777 1.0947198 -0.35032517
-0.13797426 1.0924314 -0.35192576
-0.13350974 1.091628 -0.35128531
-0.1276388 1.0937698 -0.35300457
-0.12336466 1.091998 -0.35198084
-0.11871286 1.0917087 -0.35173905
-0.11276992 1.0930086 -0.35133952
-0.10164368 1.093258 -0.35335979
-0.097799011 1.0916657 -0.35243672
-0.093456849 1.0924573 -0.35151538
-0.087599069 1.0941336 -0.35195273
-0.083408877 1.0922725 -0.35113344
-0.079426438 1.0902177 -0.35077953
-0.071638785 1.0927738 -0.35222864
-0.068355091 1.0914896 -0.35132757
-0.060262986 1.0942502 -0.35221204
-0.057089221 1.0924473 -0.35217595
-0.053759266 1.0909599 -0.35153744
-0.046876699 1.0942138 -0.35272324
-0.043050312 1.0919349 -0.35283622
-0.038833506 1.09075 -0.35098922
-0.031817466 1.0934064 -0.35294914
-0.027581675 1.0922164 -0.35109386
-0.021628929 1.0917586 -0.35048983
-0.016905069 1.0932188 -0.35237986
-0.013058545 1.0914754 -0.35167959
-0.0086819837 1.0900247 -0.35009083
-0.00071841839 1.0922608 -0.35186449
0.0026704008 1.090976 -0.35087466
0.0083049852 1.0943098 -0.35300988
0.012675492 1.0919676 -0.3527512
0.016419386 1.090938 -0.35107824
0.023976443 1.0942669 -0.35157603
0.027189221 1.0921752 -0.35233548
0.031138793 1.0909419 -0.35134369
0.038330309 1.0941936 -0.35329938
0.042943466 1.09226 -0.35222599
0.04578609 1.0906287 -0.35221782
0.052343022 1.0943514 -0.35298628
0.056741882 1.092769 -0.35157436
0.061075307 1.0902709 -0.35157892
0.067443475 1.0941515 -0.35425889
0.071930096 1.092972 -0.35217327
0.076444089 1.0911683 -0.35099158
0.084481634 1.0940475 -0.35174626
0.087494873 1.0930489 -0.35065243
0.10298588 1.0934159 -0.35074896
0.10816052 1.0905864 -0.3505263
0.11287186 1.0940151 -0.35331011
0.1163887 1.0926816 -0.35228288
0.13153283 1.092821 -0.3530142
0.14429659 1.0940851 -0.35411066
0.1478626 1.0924188 -0.35353595
0.15140055 1.0913914 -0.35203564
0.1576919 1.0945251 -0.3539063
0.16277739 1.0925417 -0.35250294
0.16640127 1.0905602 -0.35234702
0.1746095 1.0935577 -0.35476485
0.17806906 1.0927534 -0.35300049
0.18284422 1.0906575 -0.35202977
0.18604065 1.0901113 -0.35010666
-0.28197679 1.0976325 -0.35028431
-0.23605759 1.0989971 -0.35065505
-0.23309787 1.0963947 -0.35198998
-0.22908574 1.0951849 -0.35035503
-0.19726987 1.0979253 -0.35082275
-0.19341208 1.0956736 -0.35086831
-0.18776707 1.0985378 -0.35170746
-0.18315083 1.0960612 -0.35143802
-0.17693065 1.099649 -0.35269517
-0.17215379 1.0971966 -0.35225248
-0.16800204 1.0963542 -0.35137016
-0.16260752 1.09878 -0.35165709
-0.15874004 1.0968714 -0.35118464
-0.14726105 1.0986476 -0.35063422
-0.14288042 1.0956488 -0.35134253
-0.13618837 1.098646 -0.35307324
-0.13309614 1.0976111 -0.3519659
-0.12831631 1.0963606 -0.35138863
-0.12164858 1.0975896 -0.3521286
-0.11846813 1.0959114 -0.35190129
-0.10353117 1.0958036 -0.35119215
-0.096544355 1.0984106 -0.35325038
-0.092639916 1.0971481 -0.35178623
-0.08835794 1.096958 -0.35138249
-0.082238361 1.0991867 -0.35176772
-0.077240631 1.0966762 -0.3512226
-0.073908813 1.0950024 -0.35085917
-0.067821234 1.0986619 -0.35212275
-0.062543333 1.0964892 -0.35083637
-0.053167906 1.0982144 -0.35216123
-0.049272664 1.0963647 -0.35157722
-0.041199543 1.0989743 -0.35270226
-0.038439844 1.0978032 -0.35208163
-0.02764957 1.0988882 -0.35314775
-0.023273006 1.0974376 -0.35155895
-0.011894649 1.098877 -0.35159516
-0.0080165435 1.0965672 -0.35170966
-0.0033113516 1.0962582 -0.35211301
0.0031208133 1.098032 -0.35191423
0.0069848108 1.0964265 -0.35099438
0.016967932 1.0981946 -0.35173565
0.020741357 1.0964816 -0.35105294
0.033034291 1.0974131 -0.35237622
0.036792003 1.096589 -0.35098094
0.042696163 1.0991634 -0.35408908
0.047101211 1.097612 -0.35262603
0.051651184 1.0961953 -0.35083827
0.061742499 1.0988194 -0.35220018
0.067803279 1.0959485 -0.35128111
0.073651716 1.0988014 -0.35394782
0.077252395 1.0987306 -0.35097265
0.082898535 1.0957698 -0.35054165
0.089167066 1.0996675 -0.35328168
0.092479251 1.0987368 -0.3518309
0.097070254 1.0961287 -0.35177875
0.10702947 1.0984323 -0.3517448
0.11081098 1.096321 -0.35164699
0.11873085 1.0994262 -0.35415193
0.12264799 1.0972843 -0.35398334
0.14247152 1.0958768 -0.35300964
0.14718196 1.0971828 -0.3529942
0.15236019 1.0984086 -0.3526974
0.15727279 1.0960832 -0.35195014
0.16192839 1.0977464 -0.35244286
0.1679029 1.0985869 -0.35302979
0.17213173 1.0964705 -0.35255682
0.18263254 1.0990837 -0.35358453
0.18719529 1.0973536 -0.35225177
0.19188146 1.0955024 -0.35099348
-0.8484925 1.102617 -0.35222054
-0.25717443 1.1033498 -0.35034391
-0.2386086 1.1007435 -0.35024256
-0.20564015 1.1030717 -0.35033667
-0.20305656 1.1013031 -0.35075441
-0.19562849 1.103301 -0.35135543
-0.19196869 1.1011212 -0.35146344
-0.1850078 1.1037066 -0.35357624
-0.18217964 1.103032 -0.3521589
-0.17833875 1.1014961 -0.35115522
-0.17090306 1.1029813 -0.35251138
-0.16826245 1.1016662 -0.3522065
-0.16022392 1.1035628 -0.35442054
-0.15775524 1.1039512 -0.35173151
-0.15444434 1.1025753 -0.35094333
-0.14160386 1.1025428 -0.35191616
-0.13853127 1.1012264 -0.35124335
-0.13263328 1.1037786 -0.35232994
-0.12860481 1.1023062 -0.35107127
-0.12465326 1.1001456 -0.35090122
-0.11766515 1.1033485 -0.35207292
-0.11455955 1.1024759 -0.35071266
-0.10599626 1.1043774 -0.35247049
-0.10223677 1.1024753 -0.35208055
-0.098462678 1.100857 -0.35125637
-0.091552794 1.1035392 -0.35326892
-0.087504826 1.1018811 -0.35226941
-0.083185971 1.1021864 -0.35209092
-0.077333018 1.1039029 -0.35247287
-0.072255202 1.1017206 -0.3513715
-0.06007389 1.1027378 -0.35134801
-0.057104472 1.1014344 -0.3507444
-0.046283975 1.1019422 -0.35264218
-0.04229065 1.1012599 -0.35023966
-0.036161624 1.1038567 -0.35304719
-0.031662934 1.1017828 -0.35228008
-0.02737743 1.1002474 -0.35089529
-0.020785984 1.1026517 -0.35011253
-0.016979119 1.1020988 -0.35115752
-0.01055739 1.1046237 -0.35382155
-0.0067299986 1.1028352 -0.3532047
-0.0027378667 1.1018695 -0.35122436
0.0049071964 1.1048849 -0.35211271
0.0075454977 1.1032686 -0.35225722
0.012854248 1.1015328 -0.3502948
0.023250166 1.1028553 -0.35333017
0.026928181 1.1014394 -0.35228747
0.032531016 1.1039578 -0.35087427
0.036928799 1.103744 -0.35221681
0.041998446 1.1011565 -0.35153645
0.04783899 1.1011714 -0.35124546
0.052136227 1.1035122 -0.35344556
0.056765534 1.1009316 -0.35331953
0.064390026 1.104255 -0.35376784
0.068164587 1.1028236 -0.35266531
0.07233566 1.1017992 -0.35140702
0.086278602 1.1027143 -0.35122561
0.090490401 1.1009004 -0.35031757
0.097299062 1.1037092 -0.3522284
0.10241332 1.1011747 -0.35161906
0.11299769 1.103351 -0.3532249
0.11688226 1.1019509 -0.35198185
0.13354252 1.1003623 -0.35398361
0.13565408 1.1000015 -0.35271323
0.14235952 1.1042043 -0.3526412
0.1462813 1.1014287 -0.35341021
0.15794203 1.1038731 -0.35369647
0.16173431 1.1023719 -0.35268304
0.16617674 1.1009728 -0.35096139
0.1730572 1.1047219 -0.35339841
0.17667362 1.103032 -0.35281557
0.181187 1.1010816 -0.35185242
0.18906841 1.1038947 -0.35482404
-0.26157409 1.1054057 -0.35105297
-0.25629196 1.1090068 -0.35309246
-0.2525523 1.1083678 -0.35084257
-0.2378712 1.1069514 -0.35031879
-0.23158574 1.1096497 -0.35084969
-0.2055418 1.1094363 -0.35071999
-0.20389862 1.107823 -0.35171127
-0.1984531 1.1055602 -0.35041496
-0.19091563 1.1087321 -0.35116291
-0.18737456 1.1066854 -0.35117471
-0.18197721 1.1095773 -0.35218453
-0.17827216 1.1082723 -0.35095391
-0.17271797 1.1053075 -0.35060784
-0.16648869 1.1083463 -0.35267231
-0.16267844 1.1066827 -0.35188469
-0.15840146 1.1074302 -0.3510848
-0.15234131 1.108899 -0.35165739
-0.14790195 1.1066333 -0.35122612
-0.14284286 1.1075102 -0.35126629
-0.1375522 1.1074073 -0.35114613
-0.1332103 1.1071647 -0.35176191
-0.12704366 1.1085989 -0.35229477
-0.12331645 1.1070502 -0.3514075
-0.11935219 1.1050048 -0.3510552
-0.11289202 1.1087624 -0.35185444
-0.10853843 1.1068733 -0.35093689
-0.10191317 1.1094512 -0.35334796
-0.09726534 1.1074888 -0.35228741
-0.093614131 1.1059623 -0.35143197
-0.085996583 1.1088172 -0.35258242
-0.082417496 1.1068188 -0.35248986
-0.077679798 1.1070065 -0.35212767
-0.07178732 1.1089185 -0.35218516
-0.067350447 1.1074638 -0.35055077
-0.057180233 1.1094015 -0.35088035
-0.054456167 1.1075367 -0.3513208
-0.049735446 1.1053307 -0.35056001
-0.041968461 1.1076602 -0.35236341
-0.038412038 1.1059983 -0.35179025
-0.032112181 1.1090212 -0.35381824
-0.02790509 1.1076523 -0.35225284
-0.016324548 1.1089182 -0.35237417
-0.013185435 1.1076514 -0.35157117
-0.00801316 1.1067868 -0.35174859
-0.0021165514 1.1086491 -0.35252851
0.0011180309 1.1069567 -0.35227579
0.013071365 1.1087365 -0.35329947
0.01702521 1.1073792 -0.35193378
0.022688409 1.1083338 -0.3536098
0.027673243 1.1089206 -0.35244316
0.032186121 1.1059271 -0.35303044
0.03945154 1.1057978 -0.35184693
0.043679267 1.1086187 -0.35309264
0.047580045 1.106796 -0.35246396
0.052509911 1.1068077 -0.35219881
0.058251917 1.1081464 -0.3532365
0.061824128 1.1062142 -0.35305181
0.065455183 1.1060085 -0.35025093
0.073831491 1.1090964 -0.35239109
0.077428959 1.1066338 -0.35297278
0.081687585 1.1053225 -0.35127777
0.088628612 1.1090003 -0.35178399
0.093153477 1.1067619 -0.35123894
0.10229681 1.1095971 -0.35309851
0.10783732 1.1074233 -0.35158861
0.1101311 1.1053133 -0.35276139
0.11990762 1.1086116 -0.35339078
0.13213925 1.1092944 -0.35382131
0.13715282 1.1069517 -0.35301331
0.14139386 1.1062272 -0.35046172
0.14999646 1.1082177 -0.35403839
0.1569716 1.1059059 -0.35150629
0.16731162 1.1085176 -0.35267377
0.17140138 1.1061305 -0.35272205
0.18278484 1.1091913 -0.35232973
0.18681657 1.1065416 -0.35281739
-0.8551957 1.1100961 -0.35487112
-0.85275459 1.1132379 -0.35228831
-0.8485263 1.1135814 -0.35379878
-0.26207516 1.1139264 -0.35073009
-0.25765434 1.1118605 -0.35001761
-0.23672849 1.1131703 -0.35001817
-0.23415713 1.11141 -0.35043395
-0.22682276 1.1146543 -0.35124815
-0.22363727 1.1134465 -0.35031772
-0.2006437 1.1144104 -0.35104802
-0.19634417 1.111835 -0.35119644
-0.19266269 1.1112998 -0.35132343
-0.18686023 1.1124277 -0.35212684
-0.18286756 1.1110735 -0.35072318
-0.17663637 1.1144683 -0.35225695
-0.1729576 1.1129397 -0.35138124
-0.16784763 1.1102664 -0.35098198
-0.16139093 1.1132712 -0.35290274
-0.15780507 1.1118108 -0.35200509
-0.15367395 1.1118605 -0.35087806
-0.14738077 1.1127098 -0.35167566
-0.14408988 1.110956 -0.35146621
-0.13633391 1.1142904 -0.3517859
-0.13276666 1.1121825 -0.3518661
-0.12929305 1.1108073 -0.35093775
-0.12195638 1.1132886 -0.35288343
-0.11778393 1.1113389 -0.352211
-0.10720108 1.1134344 -0.35195315
-0.10263078 1.1109543 -0.35172829
-0.096870445 1.1143732 -0.35362941
-0.092392117 1.112648 -0.35236168
-0.088567659 1.1105773 -0.35216674
-0.081314266 1.1147256 -0.35170683
-0.077833936 1.1122153 -0.35245919
-0.073704079 1.110639 -0.35126835
-0.064625032 1.1134722 -0.3512007
-0.059904303 1.1112663 -0.35043991
-0.051545441 1.1142163 -0.35081491
-0.046438213 1.1112351 -0.35087523
-0.042866163 1.1121048 -0.35248178
-0.037727661 1.1135861 -0.35183927
-0.0333765 1.1112542 -0.35158172
-0.026706059 1.1141193 -0.35352737
-0.02321906 1.1124599 -0.35300994
-0.019330991 1.1113229 -0.3513732
-0.012022804 1.1125754 -0.35253251
-0.0073189535 1.1120614 -0.35190895
-0.0034115936 1.1105797 -0.35076764
0.0033240975 1.1141348 -0.35361698
0.0078951726 1.1122799 -0.3524625
0.010893915 1.1110517 -0.35172212
0.0179707 1.1134546 -0.35400686
0.021907402 1.1119192 -0.35292047
0.02692572 1.1104865 -0.35075602
0.033659574 1.1138357 -0.35391262
0.037789773 1.1122268 -0.35277006
0.041590374 1.1106138 -0.3519153
0.048315197 1.114018 -0.35301325
0.052772585 1.1122079 -0.3518894
0.056696542 1.1104083 -0.3512063
0.063041106 1.1143444 -0.35382444
0.06698215 1.1119888 -0.35330197
0.071239635 1.1107697 -0.35191715
0.077262029 1.1127495 -0.35204467
0.083590776 1.1111065 -0.35296428
0.086917214 1.1101719 -0.35150728
0.093762159 1.1140006 -0.35385701
0.097901545 1.1124518 -0.35261694
0.10258191 1.1110209 -0.35073885
0.10915355 1.1148888 -0.35326377
0.11395364 1.1129587 -0.35202515
0.11817807 1.1108804 -0.35149932
0.12423263 1.1136178 -0.3541615
0.12650765 1.1129318 -0.35323444
0.1431742 1.1126693 -0.35326061
0.14670098 1.111021 -0.35269219
0.15830417 1.1139964 -0.35223889
0.16247489 1.111783 -0.35195979
0.17331347 1.1141274 -0.35309786
0.17721997 1.1118358 -0.35316095
0.1816289 1.1111985 -0.35033596
-0.84704292 1.1161916 -0.35140634
-0.84199971 1.1172909 -0.3523989
-0.83748972 1.118354 -0.35319233
-0.27159801 1.1194849 -0.35061759
-0.25819653 1.1183481 -0.35076609
-0.2469264 1.1182151 -0.3512466
-0.24204174 1.1158394 -0.35059771
-0.23577732 1.1188387 -0.35269129
-0.23239121 1.1178178 -0.35131145
-0.22940636 1.1164229 -0.35083041
-0.20562372 1.1174926 -0.35072884
-0.20275629 1.1173558 -0.35178691
-0.19681318 1.1182561 -0.35198128
-0.19221447 1.1158959 -0.35155386
-0.18606725 1.1187801 -0.35391831
-0.18254578 1.1169635 -0.35360536
-0.17818449 1.1158582 -0.35151646
-0.1721134 1.1192858 -0.35313889
-0.16735616 1.1172192 -0.35213968
-0.16273893 1.1164746 -0.35150149
-0.1575187 1.1183192 -0.35201395
-0.15283671 1.1161952 -0.35116425
-0.14544514 1.118355 -0.35354087
-0.14210878 1.1173747 -0.35214344
-0.1389969 1.1161133 -0.35135531
-0.13145262 1.1190341 -0.35247052
-0.12807947 1.1173124 -0.35214281
-0.11729565 1.1184299 -0.35316622
-0.11250664 1.1166773 -0.35167357
-0.10525203 1.1199659 -0.35248989
-0.10225244 1.1179125 -0.35297492
-0.097946092 1.1160827 -0.35200968
-0.091707237 1.1192874 -0.35381955
-0.087261379 1.1178778 -0.35211077
-0.083453462 1.1160197 -0.35161385
-0.076426864 1.1189871 -0.35310274
-0.071989007 1.1173738 -0.35170344
-0.068014652 1.1154509 -0.35116071
-0.061029244 1.1186479 -0.35234335
-0.058111534 1.1176809 -0.35128421
-0.05428173 1.1160895 -0.35037246
-0.045697939 1.1186543 -0.35112724
-0.042033091 1.1159606 -0.35199443
-0.035952952 1.1188902 -0.35434914
-0.032484055 1.1182976 -0.35226211
-0.028716413 1.1167083 -0.35140026
-0.022633215 1.1195618 -0.35386547
-0.01708903 1.1175066 -0.35217619
-0.01326922 1.1155879 -0.35175952
-0.0060114446 1.1189513 -0.35444662
-0.0026065763 1.1183697 -0.35239813
0.001126308 1.1169138 -0.35136804
0.008888552 1.1193206 -0.35306042
0.012288848 1.1174614 -0.35291407
0.016539216 1.1151373 -0.3527312
0.024399254 1.1188508 -0.35438305
0.027499301 1.1179534 -0.35233372
0.031337548 1.11622 -0.35235646
0.036900859 1.1195973 -0.3544879
0.042318255 1.1179459 -0.35230714
0.046505727 1.1162143 -0.35129771
0.057549927 1.1184092 -0.35248259
0.060894899 1.1161702 -0.35294771
0.067981459 1.1192684 -0.35419068
0.073735856 1.1163315 -0.35363168
0.076269545 1.116387 -0.35138151
0.087774485 1.1177846 -0.35335666
0.092041172 1.116258 -0.35197487
0.096921712 1.1166017 -0.35192025
0.10294446 1.1184162 -0.3533344
0.10672015 1.1172779 -0.35179576
0.11049585 1.1161394 -0.35025716
0.11894633 1.1189797 -0.35071692
0.12299659 1.1162069 -0.35137182
0.12746371 1.1159337 -0.35085961
0.13272396 1.1182632 -0.35388884
0.13584813 1.1173559 -0.35256404
0.14744785 1.1192281 -0.35375273
0.15192571 1.1180879 -0.3516162
0.15552789 1.116722 -0.35056406
0.16731119 1.1184206 -0.35185361
0.17200075 1.1164631 -0.35075027
0.17943659 1.1195434 -0.35370615
0.18307392 1.1181643 -0.35264373
0.18697385 1.1162351 -0.35217398
-0.83788711 1.1201367 -0.35091987
-0.2670601 1.1233711 -0.35088533
-0.26250765 1.1210582 -0.35042727
-0.25695384 1.1241114 -0.35106394
-0.25236866 1.1214565 -0.35108593
-0.2454218 1.1244681 -0.35257739
-0.24188235 1.1231259 -0.35154355
-0.23795965 1.1209812 -0.35137475
-0.23294599 1.124778 -0.35136819
-0.21558371 1.1236566 -0.35009038
-0.21167473 1.1209807 -0.35072243
-0.20656702 1.1241944 -0.35150197
-0.20264277 1.1215079 -0.35213649
-0.19773757 1.1225793 -0.35230261
-0.19251573 1.1233927 -0.35258153
-0.18762781 1.1209372 -0.35204837
-0.18106049 1.1237535 -0.35415456
-0.1771263 1.1226938 -0.35236353
-0.17283386 1.1217966 -0.35126513
-0.16705988 1.1231872 -0.35294303
-0.1634386 1.1222055 -0.35130391
-0.15574156 1.1249024 -0.35262102
-0.15225138 1.1238501 -0.35119876
-0.14796737 1.1213852 -0.35119614
-0.14124532 1.1241429 -0.35325703
-0.13695885 1.1225517 -0.3519544
-0.13351856 1.1205323 -0.35201177
-0.126665 1.1240343 -0.35285416
-0.122247 1.1223592 -0.35156375
-0.11263006 1.1240002 -0.35280737
-0.10777197 1.1219815 -0.35165089
-0.097234383 1.1232171 -0.35270911
-0.093046166 1.1213273 -0.35193411
-0.086232014 1.1241609 -0.35380349
-0.082238697 1.1234787 -0.35140094
-0.077517971 1.1212727 -0.35064015
-0.071243718 1.1246102 -0.35222268
-0.067465737 1.1227601 -0.35174003
-0.063196093 1.1207752 -0.35103616
-0.056414835 1.1236622 -0.35285443
-0.052705858 1.1226754 -0.35114744
-0.048629917 1.1209202 -0.35026872
-0.04069392 1.1239549 -0.35087946
-0.037856113 1.1215792 -0.35198194
-0.034666616 1.1200887 -0.35146788
-0.026947495 1.1233854 -0.35187504
-0.022942994 1.1215142 -0.35122964
-0.012363204 1.1236813 -0.35285258
-0.0079944516 1.1213584 -0.35256654
-0.0031852014 1.1213535 -0.35242939
0.0028539565 1.123803 -0.35156259
0.0077990536 1.1209449 -0.35157901
0.013895991 1.1249816 -0.35425901
0.017063161 1.1236376 -0.35354674
0.022400435 1.1215819 -0.35340118
0.025710255 1.1200724 -0.35144657
0.03254538 1.1227319 -0.35304964
0.037229285 1.1213089 -0.35168272
0.043329727 1.1245245 -0.35278198
0.048165049 1.1237644 -0.35255417
0.052572813 1.1219691 -0.3514508
0.062432755 1.1234726 -0.35269061
0.065875761 1.1220703 -0.35182878
0.073826268 1.1247697 -0.35491046
0.077494241 1.123554 -0.3535789
0.081935659 1.1212571 -0.35319215
0.08509732 1.1213714 -0.35031751
0.094078235 1.1241243 -0.35243803
0.097438686 1.1223661 -0.35217547
0.10156684 1.1206248 -0.35123116
0.11381661 1.1218379 -0.35085869
0.12464029 1.1240188 -0.35154173
0.12766646 1.1226795 -0.3519688
0.13148716 1.1203415 -0.35185891
0.13819759 1.1241854 -0.35430032
0.14197823 1.1227891 -0.35314083
0.14540197 1.1214538 -0.35219601
0.15773532 1.1235757 -0.35238588
0.16205995 1.1214365 -0.35186493
0.17282912 1.1234003 -0.35362813
0.17717381 1.1222034 -0.35168973
0.18081114 1.1208242 -0.35062727
-0.84404135 1.1277726 -0.35363477
-0.26637986 1.1281435 -0.35313654
-0.26235327 1.1273235 -0.35091028
-0.25189334 1.1291764 -0.35111797
-0.24804059 1.1270392 -0.35099754
-0.23614402 1.1259906 -0.35230231
-0.23458917 1.1263913 -0.3503769
-0.22788551 1.1288707 -0.35164446
-0.21182784 1.1272211 -0.35150516
-0.20839904 1.1261873 -0.35010794
-0.20212877 1.1289508 -0.35254678
-0.1973256 1.126611 -0.35191411
-0.19308913 1.1268802 -0.35185993
-0.18734795 1.128413 -0.35261029
-0.1826458 1.1258332 -0.35242081
-0.17670812 1.1291932 -0.35227284
-0.17227331 1.1270056 -0.35172924
-0.16785656 1.1252298 -0.35058957
-0.16148114 1.1281631 -0.35268626
-0.15804899 1.1259806 -0.35299289
-0.15057816 1.1298603 -0.35274583
-0.14670646 1.1282172 -0.35187513
-0.14285141 1.1262498 -0.3515006
-0.1380146 1.1264518 -0.3510322
-0.13223182 1.1278454 -0.3519541
-0.12914374 1.1260686 -0.35195217
-0.12126806 1.1290421 -0.35270536
-0.11714735 1.1269912 -0.35222802
-0.11335094 1.1255102 -0.35118037
-0.10626034 1.1287396 -0.35222507
-0.10212515 1.1262916 -0.35232472
-0.093112692 1.1287572 -0.3528603
-0.088456921 1.1259404 -0.35306269
-0.084962755 1.1253436 -0.35096049
-0.077226251 1.1278814 -0.35248014
-0.073098972 1.1265671 -0.35090208
-0.065667622 1.1294789 -0.35212719
-0.06207972 1.127454 -0.35206661
-0.057894997 1.1259323 -0.35074776
-0.050493717 1.129884 -0.35045344
-0.048744757 1.1281669 -0.3515085
-0.043454636 1.1258448 -0.35043311
-0.035757404 1.1275022 -0.35329485
-0.032616135 1.1267874 -0.35166952
-0.023011733 1.1290151 -0.35403696
-0.017734585 1.127072 -0.35240936
-0.012242913 1.1272029 -0.35148692
-0.0071421461 1.1288391 -0.3526313
-0.0031173502 1.1271244 -0.35173616
0.0075812591 1.1289514 -0.35376272
0.011573968 1.1273658 -0.35270292
0.018005852 1.1283405 -0.35289776
0.023273028 1.1281857 -0.35291573
0.027273426 1.1266596 -0.3523069
0.038405817 1.1284018 -0.35401237
0.042295773 1.1274766 -0.35205916
0.047801595 1.1285958 -0.35362536
0.053010479 1.1289084 -0.35267434
0.057636686 1.1266876 -0.35201648
0.068760924 1.1293166 -0.35248756
0.072181307 1.127407 -0.35239908
0.075862296 1.1258945 -0.35149735
0.0837088 1.1295958 -0.3531791
0.088280037 1.1276764 -0.35212046
0.091557503 1.1258498 -0.35203043
0.099353984 1.129015 -0.35256684
0.10231011 1.1282623 -0.35115641
0.10793459 1.1253197 -0.35071695
0.11918066 1.1276714 -0.35149568
0.1216998 1.1264942 -0.35108969
0.13276288 1.128566 -0.35244083
0.13768969 1.1260734 -0.35192975
0.14775519 1.1287497 -0.35323602
0.15190555 1.1270015 -0.35228279
0.16468632 1.1296412 -0.35132113
0.16818619 1.1281339 -0.3505666
0.17166758 1.1254175 -0.35162467
0.17909087 1.1298358 -0.35458758
0.18383542 1.1282632 -0.35286522
-0.84362268 1.1306185 -0.3504838
-0.26835218 1.1304619 -0.35137892
-0.26165366 1.1338776 -0.35248244
-0.2583397 1.1333114 -0.35048866
-0.21554892 1.1300969 -0.35041559
-0.21191059 1.1339976 -0.35341609
-0.20753115 1.1322367 -0.35228601
-0.20411497 1.1306404 -0.35173541
-0.19669819 1.1339616 -0.35236478
-0.19223922 1.1316549 -0.35197771
-0.18871966 1.1304883 -0.35070002
-0.18231137 1.1329368 -0.35150379
-0.17921732 1.1307113 -0.35216376
-0.17207263 1.1340767 -0.35296029
-0.16809726 1.1327591 -0.35151717
-0.16177863 1.1300379 -0.35015494
-0.15753223 1.1331099 -0.35386658
-0.15236163 1.1310813 -0.35245749
-0.14538543 1.1348259 -0.35283443
-0.14140005 1.1331097 -0.35197523
-0.1376234 1.1311988 -0.35158348
-0.13410118 1.1301368 -0.3501482
-0.12654753 1.1328501 -0.35156399
-0.12384789 1.1310019 -0.35200053
-0.1168048 1.1342562 -0.35304892
-0.11333279 1.13256 -0.35259882
-0.10996605 1.1307658 -0.35238454
-0.10266549 1.1336157 -0.35381353
-0.098005384 1.1315368 -0.35291588
-0.087020211 1.1325769 -0.35388187
-0.082643643 1.1311264 -0.3522931
-0.076575071 1.1334283 -0.35360533
-0.071878336 1.132799 -0.35250697
-0.067935877 1.1318079 -0.3506071
-0.060062185 1.1343552 -0.3519955
-0.057328336 1.1330777 -0.35155493
-0.053301312 1.1315417 -0.35080501
-0.04481665 1.134748 -0.35027859
-0.039270796 1.1309514 -0.35117531
-0.031373274 1.1347392 -0.35268497
-0.027100101 1.1323388 -0.35259622
-0.022753512 1.1308324 -0.35111579
-0.015992012 1.1332788 -0.35360566
-0.013448834 1.1333345 -0.35134715
-0.0092757456 1.1310527 -0.35116756
-0.0012034095 1.1347885 -0.35260469
0.0029036023 1.1329306 -0.35185194
0.0075173732 1.1304078 -0.35165343
0.013843835 1.133284 -0.35387674
0.017387494 1.1324332 -0.35210893
0.028647592 1.1343246 -0.35356009
0.032648139 1.1324254 -0.35240653
0.037873983 1.1311295 -0.35237783
0.042997524 1.1337941 -0.35398111
0.047037032 1.1323712 -0.35263941
0.051076543 1.1309484 -0.35129771
0.05844279 1.1347611 -0.35322499
0.062359937 1.1326193 -0.35305643
0.066208452 1.1309098 -0.35230401
0.074779786 1.1340811 -0.3541531
0.078499556 1.1328906 -0.35273975
0.082420669 1.1318878 -0.35087547
0.087880328 1.1346908 -0.35394895
0.092121363 1.1339662 -0.3513974
0.096074671 1.1318046 -0.35122725
0.1081984 1.1342772 -0.35107547
0.11084692 1.1328291 -0.35096148
0.11588519 1.1304747 -0.35014948
0.12358984 1.1341856 -0.35193837
0.12767962 1.1317984 -0.35198668
0.13849898 1.1336492 -0.35387468
0.14268589 1.1323305 -0.3522521
0.14659925 1.1307571 -0.35124227
0.15338045 1.1346037 -0.35361946
0.15783986 1.1330153 -0.3521648
0.16134399 1.1308184 -0.35243127
0.17651896 1.1327136 -0.35251206
0.18156013 1.1309378 -0.35083765
-0.84908748 1.1384071 -0.35333171
-0.26708734 1.1370623 -0.35239887
-0.26258028 1.1353632 -0.35106784
-0.2521508 1.1386944 -0.35320032
-0.24970305 1.1390712 -0.35386589
-0.21524082 1.1372671 -0.35140705
-0.21252531 1.135903 -0.35111088
-0.20605621 1.1388763 -0.35306776
-0.20244788 1.1369033 -0.35291249
-0.19841675 1.1363907 -0.35187989
-0.19157811 1.1384745 -0.35120329
-0.18749902 1.1358484 -0.35161564
-0.18023816 1.1386639 -0.35312992
-0.17731032 1.1381637 -0.35136843
-0.17300563 1.1357181 -0.35131949
-0.16653827 1.1387715 -0.35315877
-0.1644863 1.1363595 -0.35498732
-0.15664293 1.1350194 -0.35026842
-0.15126114 1.1380389 -0.35308728
-0.1475362 1.1371658 -0.3511979
-0.14314079 1.1369442 -0.35074395
-0.13701506 1.1389146 -0.35150778
-0.13215645 1.1363509 -0.35116056
-0.12882787 1.1350888 -0.35018831
-0.12153576 1.1377926 -0.35184139
-0.11873339 1.1357466 -0.3524842
-0.11092825 1.1390158 -0.35285854
-0.10820419 1.1371511 -0.35329899
-0.10357475 1.1355205 -0.35176137
-0.096049204 1.1379852 -0.35357016
-0.092583321 1.1356862 -0.35402122
-0.085453808 1.1399192 -0.35354128
-0.081763834 1.1382803 -0.35281983
-0.077776127 1.1361686 -0.35254592
-0.073160142 1.1364732 -0.35211432
-0.067607135 1.1384808 -0.35232013
-0.061305258 1.1359859 -0.35063604
-0.053226106 1.1386777 -0.35163388
-0.048450932 1.1358438 -0.35175955
-0.036761574 1.1381655 -0.35220358
-0.032581557 1.1360911 -0.3517099
-0.026255198 1.1389871 -0.35390404
-0.023084218 1.1385481 -0.35184366
-0.018201524 1.1359333 -0.35155165
-0.0068067452 1.1380947 -0.35248578
-0.0022984555 1.1364211 -0.35111576
0.0036711658 1.1397917 -0.35290948
0.0080504883 1.1375918 -0.35243177
0.011723338 1.1358755 -0.35183984
0.018551122 1.1394539 -0.35457596
0.022399856 1.1380668 -0.35334438
0.027069261 1.1359142 -0.35254821
0.034440532 1.139652 -0.35259748
0.037118644 1.137729 -0.35316354
0.04153898 1.1355085 -0.35268134
0.049557947 1.1392243 -0.35419416
0.05309236 1.137884 -0.35316181
0.056740809 1.1371136 -0.35118556
0.067970552 1.1387424 -0.35305211
0.07228177 1.1371263 -0.35176545
0.07612209 1.1353319 -0.35114652
0.083540753 1.1376616 -0.35324728
0.086586729 1.1369926 -0.35163555
0.090288572 1.1357658 -0.3502917
0.098702803 1.1391357 -0.35198006
0.10328952 1.1363605 -0.35217947
0.1052911 1.1362675 -0.35060534
0.11774673 1.1381856 -0.35099357
0.12173899 1.1360028 -0.35082179
0.12859644 1.1394885 -0.35366973
0.13234687 1.1378423 -0.35290736
0.13687989 1.1359367 -0.35186085
0.14423688 1.139197 -0.35461682
0.1481033 1.1380314 -0.35304129
0.15196975 1.1368655 -0.35146573
0.16425917 1.1399893 -0.35218939
0.16702746 1.1383734 -0.35222211
0.17220767 1.1358883 -0.35148302
0.1781759 1.1395618 -0.35481304
0.18264475 1.1386069 -0.3524088
-0.84661901 1.141584 -0.35071996
-0.26631516 1.1434709 -0.35214031
-0.263221 1.142476 -0.35097176
-0.25312304 1.1402166 -0.35097355
-0.24846777 1.1420479 -0.35093111
-0.21107475 1.1438034 -0.3500402
-0.20775905 1.1412021 -0.35106882
-0.20217513 1.1435965 -0.35265827
-0.19800822 1.1416644 -0.35196456
-0.19392009 1.1405768 -0.35008305
-0.18692587 1.1439106 -0.35105532
-0.18183693 1.1407611 -0.35138148
-0.17287017 1.1436818 -0.35127968
-0.16793662 1.141072 -0.35093695
-0.16079234 1.1443613 -0.35184687
-0.15797128 1.143189 -0.35117531
-0.15213449 1.1401209 -0.35074076
-0.14704674 1.1437489 -0.35290664
-0.14268793 1.1422802 -0.3516843
-0.13890556 1.1409712 -0.35006928
-0.13198452 1.144001 -0.35155544
-0.12822488 1.1422442 -0.35094953
-0.12283665 1.1414232 -0.35152936
-0.11772474 1.142936 -0.35284826
-0.11390616 1.1406442 -0.35298666
-0.10626365 1.1439474 -0.35344952
-0.10364201 1.1427968 -0.35291657
-0.09108749 1.1429996 -0.3537837
-0.087651871 1.1406476 -0.35433918
-0.07721322 1.1438094 -0.35262048
-0.072254099 1.1414021 -0.35195494
-0.068344332 1.1400249 -0.35065633
-0.062746242 1.1449339 -0.3504824
-0.056769714 1.1415386 -0.35041448
-0.046292674 1.1435883 -0.3522999
-0.042149864 1.1415918 -0.35172218
-0.037522428 1.1422963 -0.3526713
-0.031827837 1.143329 -0.35221988
-0.027889442 1.1414233 -0.35168198
-0.016958304 1.1439848 -0.3524186
-0.012340126 1.1417503 -0.35178787
-0.007783161 1.1417168 -0.35190898
-0.0024194568 1.1432519 -0.35297871
0.00084530574 1.1417263 -0.35245258
0.012618095 1.143872 -0.35308695
0.01987445 1.1406869 -0.35161185
0.023688409 1.142958 -0.35291362
0.027849864 1.1427317 -0.35365969
0.03211087 1.1415153 -0.35182184
0.043321341 1.1431012 -0.35376897
0.047045089 1.1421783 -0.35195491
0.050893601 1.1404687 -0.35120243
0.057928473 1.1439899 -0.3538461
0.062381651 1.1424481 -0.3523275
0.065368019 1.141609 -0.35101947
0.073608205 1.1441889 -0.35204595
0.07756152 1.1420271 -0.35187584
0.081321701 1.1402701 -0.35126981
0.08885204 1.1440547 -0.35309827
