# .PCD v0.7 - Point Cloud Data file format
VERSION 0.7
FIELDS x y z
SIZE 4 4 4
TYPE F F F
COUNT 1 1 1
WIDTH 1380
HEIGHT 1
VIEWPOINT 0 0 0 1 0 0 0
POINTS 1380
DATA ascii
-0.25141793 1.0507987 -0.21465382
-0.24674532 1.0502146 -0.21332961
-0.23119147 1.051289 -0.21318984
-0.22770271 1.051437 -0.21174113
-0.22351001 1.05129 -0.21025614
-0.21828191 1.0522126 -0.21284923
-0.12578765 1.0525126 -0.21410443
-0.12443736 1.0540423 -0.21441984
-0.19412419 1.0579623 -0.21105759
-0.12609062 1.0564214 -0.21189088
-0.13004 1.064846 -0.21136202
-0.12864235 1.0632105 -0.21331072
-0.19296907 1.0666751 -0.21039824
-0.18197115 0.72835189 -0.20738654
-0.17245774 0.72881508 -0.20824026
-0.16826718 0.72990227 -0.20738682
-0.18384884 0.73264217 -0.20689858
-0.17504707 0.73456019 -0.20510018
-0.1722924 0.73276699 -0.20822012
-0.16981968 0.73416412 -0.2095053
-0.18659967 0.73838949 -0.20740858
-0.18484181 0.73730057 -0.2089242
-0.17296065 0.73706907 -0.20735282
-0.18698727 0.74263239 -0.20769022
-0.17536992 0.74025422 -0.20748635
-0.17372939 0.74264115 -0.20760322
-0.19147104 0.74951398 -0.20980869
-0.18851024 0.74779189 -0.20718674
-0.19139959 0.75259554 -0.20735386
-0.1893485 0.75143379 -0.20748599
-0.2009109 0.7594344 -0.20958535
-0.19701447 0.75798416 -0.20785315
-0.19325852 0.75577974 -0.20715016
-0.20196284 0.76252151 -0.20755504
-0.19940332 0.76095819 -0.20780934
-0.11717279 0.76427484 -0.20569655
-0.2032364 0.76737761 -0.20776017
-0.12058586 0.76795602 -0.20941594
-0.11748568 0.76837361 -0.20790331
-0.20553072 0.77282512 -0.20782574
-0.20376506 0.77233928 -0.20682234
-0.1346937 0.77464879 -0.20953038
-0.12615266 0.77358162 -0.20710991
-0.12285961 0.7727437 -0.20684491
-0.20630087 0.77764386 -0.20768966
-0.20445518 0.77675581 -0.20659702
-0.12588741 0.77745581 -0.2079439
-0.12492939 0.77620602 -0.20856269
-0.20750308 0.7822001 -0.20745912
-0.21585479 0.7884323 -0.20573865
-0.21258667 0.78874171 -0.20850001
-0.20822041 0.78773075 -0.20869261
-0.21161151 0.79175138 -0.20682012
-0.20952126 0.79166389 -0.20609099
-0.22643939 0.81411028 -0.20915246
-0.22386426 0.81414461 -0.20569155
-0.21378712 0.81476307 -0.20659283
-0.20692167 0.81448811 -0.20673926
-0.19815969 0.8122921 -0.20809674
-0.2415015 0.8190943 -0.20998387
-0.23770462 0.81897062 -0.20863156
-0.23332508 0.819157 -0.20702241
-0.22818306 0.81715 -0.20726949
-0.22288565 0.81748325 -0.20733798
-0.21881969 0.81661391 -0.20864461
-0.21119894 0.81548572 -0.20831087
-0.20721486 0.81602734 -0.20572765
-0.20467791 0.81684655 -0.20735584
-0.19668081 0.81696379 -0.20916808
-0.19379029 0.81834519 -0.20697632
-0.1409052 0.81914639 -0.20648542
-0.13723695 0.81772411 -0.20739564
-0.24644297 0.822887 -0.20888294
-0.24198793 0.82285392 -0.20720793
-0.23806664 0.82147115 -0.2068
-0.23376895 0.8211211 -0.20619425
-0.22768697 0.82129484 -0.2082919
-0.22254446 0.82141286 -0.20689978
-0.21715887 0.8221038 -0.20743202
-0.21213172 0.82292676 -0.2077122
-0.20793645 0.82305062 -0.20867094
-0.20084833 0.82419634 -0.20904909
-0.19713479 0.82319891 -0.20841688
-0.19234526 0.82274586 -0.20694499
-0.18883698 0.82340682 -0.20508489
-0.14613815 0.82327318 -0.20571099
-0.14274663 0.82307416 -0.20798829
0.052503467 0.82417351 -0.20935257
0.058133703 0.82250041 -0.20852074
0.062616944 0.8239994 -0.20744601
0.06748078 0.82370132 -0.20880702
0.072906569 0.82392079 -0.20778336
0.077745661 0.82426703 -0.20745972
0.081257775 0.82410187 -0.20800124
-0.24727337 0.82748276 -0.2069665
-0.2438322 0.8264007 -0.20511822
-0.2173636 0.82505172 -0.20537788
-0.21079205 0.82648027 -0.20705949
-0.20834099 0.82624161 -0.20631167
-0.20300272 0.82750428 -0.20726582
-0.19798569 0.82654136 -0.20610885
-0.19218662 0.8287977 -0.20743345
-0.18762198 0.82882243 -0.20567116
-0.15128838 0.82811594 -0.20830309
-0.14703554 0.82871145 -0.20803466
-0.14220931 0.82862949 -0.20686185
-0.1398305 0.82658988 -0.20778854
-0.13291094 0.82842559 -0.2090167
0.047653764 0.82840854 -0.20786816
0.051917173 0.82703793 -0.20732008
0.057350967 0.82663798 -0.20723417
0.062474616 0.82613003 -0.20679535
0.067568593 0.82627159 -0.20687923
0.071592636 0.82588804 -0.20690162
0.077932701 0.82636678 -0.20793319
0.082770422 0.82714689 -0.20700055
0.086586103 0.82880872 -0.20814306
-0.24897715 0.83278197 -0.20737189
-0.20487247 0.83110017 -0.20514715
-0.19295955 0.83107591 -0.20593388
-0.18948182 0.83048272 -0.20507333
-0.16091236 0.83393395 -0.20606564
-0.15767856 0.83216685 -0.20622297
-0.15240321 0.83208561 -0.20756635
-0.14716411 0.832093 -0.206412
-0.1436777 0.83216542 -0.2082067
-0.13851686 0.83269233 -0.20779602
0.04326405 0.83189011 -0.20680168
0.047594644 0.83235097 -0.20662615
0.05274865 0.83287477 -0.20774592
0.0561448 0.8310132 -0.20873976
0.087562174 0.83156323 -0.20754015
0.091672294 0.83327603 -0.20828654
0.096610405 0.83305484 -0.20737053
-0.25067562 0.83769035 -0.208141
-0.24946924 0.83547282 -0.20544007
-0.16283521 0.83609855 -0.2050947
-0.15171342 0.83531159 -0.20545518
-0.14280099 0.83629459 -0.20734896
-0.13658325 0.83728135 -0.20733339
-0.13323873 0.83795422 -0.20795122
-0.12759534 0.83750063 -0.20794348
-0.12259018 0.83878851 -0.2071846
-0.11714778 0.83850628 -0.20693235
-0.11250178 0.83895421 -0.20832306
0.038665764 0.83876413 -0.20845851
0.041516088 0.83764344 -0.20825306
0.047372863 0.83612454 -0.20737971
0.099120304 0.83635575 -0.20802175
0.1015266 0.83820033 -0.20725517
-0.25124112 0.84257281 -0.2075486
-0.13545126 0.84021878 -0.20596811
-0.13039146 0.84229547 -0.20776094
-0.12614202 0.84332532 -0.20931435
-0.12296668 0.84301752 -0.2083444
-0.11633453 0.84078902 -0.20983021
-0.11220033 0.84207708 -0.20699178
-0.10865216 0.84401989 -0.20886719
0.038319167 0.8425197 -0.20722727
0.040886972 0.84129006 -0.20562056
0.10353614 0.84189558 -0.20723554
0.1057339 0.84361064 -0.20643602
-0.25247765 0.84795326 -0.20719978
-0.1306541 0.84525645 -0.20552883
-0.12674604 0.84682655 -0.20678686
-0.12263971 0.84682351 -0.2073479
-0.11731689 0.84728783 -0.20813958
-0.11196138 0.84644699 -0.20693661
-0.10788894 0.84774882 -0.20803843
-0.10469297 0.84991431 -0.20908183
-0.098608069 0.84943515 -0.20870322
0.034656163 0.84885228 -0.20735864
0.037143257 0.84675097 -0.2080643
0.10773665 0.84776795 -0.20724484
-0.25630143 0.8531729 -0.207396
-0.25397593 0.85259783 -0.20696107
-0.12144889 0.85152942 -0.206376
-0.11748362 0.85214919 -0.20703176
-0.11265779 0.85192925 -0.20802052
-0.10703903 0.85253197 -0.20720489
-0.10313224 0.85289156 -0.20814762
-0.097345583 0.85277081 -0.20803784
-0.077629142 0.85441273 -0.20863795
-0.025066007 0.85493952 -0.2071832
-0.023203384 0.85367626 -0.20931837
0.034752071 0.85385656 -0.20869616
0.036592133 0.85225707 -0.20780371
0.10935193 0.85095662 -0.2063341
0.11060129 0.85340613 -0.20817311
-0.25553969 0.85759604 -0.2078739
-0.25336158 0.85560012 -0.20967768
-0.11742917 0.85679162 -0.20601203
-0.11132167 0.85770077 -0.20792572
-0.10744462 0.85752881 -0.20870721
-0.10266756 0.85709828 -0.20798366
-0.09741573 0.85668677 -0.20817304
-0.091760501 0.85813713 -0.20969164
-0.086662665 0.85826647 -0.20907448
-0.083205692 0.85660541 -0.2090399
-0.032036763 0.85908741 -0.20881215
-0.027804611 0.85861731 -0.20800066
-0.022551117 0.85810179 -0.20801024
-0.017786954 0.85759068 -0.20618765
-0.013768588 0.85849029 -0.20855358
0.034475762 0.85697168 -0.20634775
0.036395676 0.85701072 -0.2063434
0.10974539 0.85645467 -0.20732693
0.11084932 0.85770541 -0.20758483
-0.25628912 0.86182255 -0.2076658
-0.11701019 0.86305004 -0.20623824
-0.11294218 0.86135387 -0.2060211
-0.10672235 0.86296803 -0.20769083
-0.1009634 0.86450595 -0.20884071
-0.097595431 0.86316317 -0.20841563
-0.092165336 0.86149859 -0.20891529
-0.087736242 0.86345047 -0.20925747
-0.082578085 0.86313128 -0.20927759
-0.076109104 0.86190796 -0.20968822
-0.068343975 0.86442769 -0.20894921
-0.030546503 0.86178565 -0.20611764
-0.027967758 0.86237419 -0.20693637
-0.02246362 0.8609376 -0.20730202
-0.017486369 0.86168784 -0.20652433
-0.012531827 0.86230147 -0.20815642
-0.0075200642 0.86332881 -0.20722121
-0.0020818978 0.86420423 -0.20583771
0.017180834 0.86452365 -0.20700227
0.026501745 0.86397809 -0.20918919
0.033618353 0.86212271 -0.20793349
0.036568992 0.86020821 -0.20831503
0.11228196 0.86273152 -0.20620435
-0.25375733 0.86586094 -0.20573288
-0.12013101 0.86611271 -0.20501724
-0.11672454 0.86922115 -0.20658392
-0.11302064 0.86776489 -0.20631698
-0.1084543 0.86682743 -0.20584355
-0.10259589 0.86833948 -0.20700227
-0.09745118 0.86717141 -0.20627441
-0.093700692 0.86774743 -0.20889112
-0.086917631 0.86773789 -0.20901756
-0.081531242 0.86826265 -0.20905682
-0.077915177 0.86805165 -0.20895153
-0.073400758 0.86755627 -0.208673
-0.067133516 0.8681246 -0.20867293
-0.064167939 0.86915851 -0.2099247
-0.05902677 0.86680925 -0.20972943
-0.051745798 0.86901003 -0.20778064
-0.047111563 0.86865538 -0.20873296
-0.036881473 0.86850441 -0.20856002
-0.031995185 0.86731827 -0.20760909
-0.028629828 0.86675513 -0.20635866
-0.0065364311 0.86597186 -0.20827186
-0.002517865 0.86605185 -0.20765527
0.00278084 0.86809701 -0.20772076
0.0069825808 0.8688938 -0.20790921
0.012097673 0.86917585 -0.20591532
0.017794654 0.8680774 -0.20751254
0.023197209 0.8674441 -0.20772067
0.026641116 0.86763203 -0.20625763
0.032767434 0.86653757 -0.20659304
0.11276731 0.86636651 -0.20752057
-0.12053987 0.87193346 -0.20590411
-0.11867899 0.87110484 -0.20584635
-0.11220752 0.87344313 -0.20684956
-0.10775883 0.87232065 -0.20603518
-0.1017722 0.87209111 -0.2061498
-0.097957812 0.87218207 -0.20761395
-0.092508733 0.8722744 -0.20821297
-0.087740287 0.8725298 -0.20895399
-0.083089508 0.87295741 -0.20933369
-0.077160224 0.87332332 -0.20871858
-0.072437376 0.87228686 -0.20788805
-0.067603618 0.87160027 -0.20816965
-0.063146397 0.87310714 -0.20873684
-0.056637984 0.87307227 -0.20849498
-0.052013356 0.8725093 -0.20737766
-0.0475608 0.87228918 -0.20798805
-0.043784268 0.87362701 -0.20890427
-0.037775964 0.87242651 -0.20701718
-0.032778949 0.8717826 -0.20643775
0.0083519528 0.87069106 -0.20728283
0.012679718 0.8720699 -0.20820688
0.017521935 0.87211049 -0.20780241
0.022012126 0.87256438 -0.20722002
0.028017465 0.87282681 -0.20666637
0.031514984 0.87215137 -0.20797545
-0.23131733 0.8770448 -0.20829059
-0.22119556 0.87861896 -0.20850195
-0.21942684 0.878398 -0.2080007
-0.1154547 0.87634206 -0.20580576
-0.11266642 0.87524575 -0.20560479
-0.10780519 0.87894791 -0.20573454
-0.10090314 0.87583083 -0.20596865
-0.096991964 0.87738973 -0.20708923
-0.092648678 0.87765074 -0.20875344
-0.087697729 0.87782615 -0.208763
-0.082368545 0.87691629 -0.2084834
-0.077184886 0.87746036 -0.20684169
-0.071477495 0.87702441 -0.20705725
-0.068507425 0.87769139 -0.20792213
-0.06237942 0.87658042 -0.20762321
-0.058194838 0.87775058 -0.2088242
-0.052617189 0.87713403 -0.20767716
-0.047563393 0.87717712 -0.20765989
-0.041942433 0.87796229 -0.20802212
-0.03800844 0.87691909 -0.20768352
-0.032735519 0.87812036 -0.20633642
0.028967222 0.8758831 -0.20562759
0.031561568 0.87553012 -0.20789269
-0.23787549 0.88203341 -0.2098442
-0.23206368 0.88314825 -0.20706379
-0.22842982 0.88236469 -0.20707288
-0.22345211 0.8839848 -0.20805484
-0.21751134 0.88224906 -0.20681477
-0.21317226 0.88131255 -0.20526227
-0.19944623 0.88233775 -0.20657144
-0.11572228 0.88327307 -0.20545852
-0.11230402 0.88399941 -0.20784248
-0.10782065 0.88206953 -0.20690659
-0.09686809 0.88053745 -0.20616692
-0.092629284 0.8826372 -0.20757417
-0.087620869 0.88199443 -0.20665807
-0.083088957 0.88137245 -0.20712771
-0.077525064 0.88129103 -0.20826724
-0.07369937 0.88265193 -0.20653218
-0.066858925 0.8826763 -0.2064627
-0.06322559 0.88292712 -0.20847152
-0.05208236 0.88139176 -0.20934604
-0.046619292 0.88165528 -0.2079397
-0.041305065 0.88295782 -0.20756988
-0.036800958 0.88168412 -0.20621246
-0.23616906 0.88625598 -0.209089
-0.23481879 0.88778567 -0.20940439
-0.22771256 0.88579774 -0.20922908
-0.19984822 0.88523245 -0.20976089
-0.18938749 0.88626719 -0.20726931
-0.17733151 0.88888025 -0.20759329
-0.17201495 0.88892859 -0.20685439
-0.16751325 0.8883661 -0.20557866
-0.15608361 0.88978803 -0.20541063
-0.11806965 0.88798308 -0.20671171
-0.11484473 0.88671559 -0.2099449
-0.10974453 0.88618398 -0.20880072
-0.097328752 0.88625753 -0.20772152
-0.092242084 0.88734978 -0.20675071
-0.089919969 0.88768578 -0.20744666
-0.071370617 0.88583231 -0.2067578
-0.065861262 0.88589686 -0.20564228
-0.062233664 0.88711214 -0.20794834
-0.046288531 0.88716608 -0.20783338
-0.040415615 0.88751626 -0.20822325
-0.038609676 0.88771302 -0.20699899
-0.24593443 0.89428324 -0.20959672
-0.17740612 0.89103723 -0.20983176
-0.17176096 0.89323711 -0.20867942
-0.16610214 0.89302689 -0.20668441
-0.16280255 0.89249045 -0.20584714
-0.15792623 0.89224976 -0.20632029
-0.13300234 0.89260405 -0.20501174
-0.12197939 0.89252043 -0.20679489
-0.060022213 0.89042133 -0.20805971
-0.047259852 0.89336914 -0.208884
-0.0415361 0.89239043 -0.20759667
-0.038877212 0.89257854 -0.2063062
-0.2445738 0.89582467 -0.20991455
-0.17128736 0.89902532 -0.20925507
-0.16760348 0.89799035 -0.20836854
-0.16312379 0.89800537 -0.20694157
-0.15679006 0.897443 -0.20742403
-0.15337254 0.89706582 -0.20627318
-0.13532792 0.89875859 -0.20636755
-0.1322144 0.89761609 -0.20607877
-0.12702902 0.89683521 -0.20645143
-0.12451155 0.89782703 -0.20759887
-0.056149084 0.89987087 -0.20715642
-0.052357972 0.898781 -0.20656739
-0.047842491 0.8969627 -0.20627575
-0.042702634 0.89696658 -0.2064992
-0.24285427 0.90007967 -0.20915355
-0.17009276 0.90474576 -0.20960903
-0.16793397 0.90264887 -0.20724683
-0.15584727 0.90271598 -0.20888086
-0.15280716 0.9018814 -0.20623174
-0.14093477 0.90109056 -0.20515101
-0.13125305 0.90131515 -0.20722458
-0.12631568 0.90051073 -0.20675533
-0.12294213 0.90256846 -0.20647195
-0.11959738 0.90483969 -0.20801821
-0.060161248 0.90345275 -0.20586672
-0.057274174 0.90356648 -0.20786451
-0.052990168 0.90228981 -0.20783913
-0.047935911 0.90158576 -0.20870148
-0.041922286 0.90174699 -0.20588279
-0.17073976 0.90797961 -0.20730856
-0.16086039 0.90771097 -0.20922464
-0.15688819 0.90573466 -0.20652208
-0.12135964 0.90631288 -0.20585804
-0.11753847 0.90807575 -0.20804381
-0.061741333 0.90812737 -0.20810375
-0.057402089 0.90595794 -0.20815584
-0.050741863 0.90511537 -0.20812055
-0.1728114 0.91273195 -0.20815308
-0.11619069 0.91086751 -0.20772116
-0.11342373 0.91276294 -0.20899197
-0.066293597 0.91214818 -0.20667456
-0.06444867 0.91224885 -0.20589077
0.021345381 0.91272849 -0.20574613
-0.1766382 0.91848809 -0.20659886
-0.17438224 0.91625965 -0.20749295
-0.11212441 0.91749787 -0.20765102
-0.067621037 0.91770279 -0.20834339
0.023436613 0.91710794 -0.20522147
-0.18109237 0.92397606 -0.20929265
-0.17817706 0.92223674 -0.20803078
-0.11090189 0.92243493 -0.20614645
-0.10931921 0.92226595 -0.20750491
-0.070218429 0.92199123 -0.20706446
-0.067864612 0.92169726 -0.20639741
0.020772418 0.92109907 -0.2052031
-0.18503229 0.92749339 -0.20802617
-0.18173055 0.92708081 -0.20709048
-0.17880303 0.92648238 -0.20644416
-0.10746619 0.92705935 -0.20658
-0.1045175 0.92842841 -0.20826226
-0.071561344 0.92816436 -0.20803052
0.01862739 0.92837298 -0.20716557
0.021056378 0.92742974 -0.20775658
-0.25660348 0.93289036 -0.20913363
-0.076565355 0.93190634 -0.20699352
-0.073579982 0.93212926 -0.20638686
0.018349711 0.9324199 -0.20857953
-0.077118099 0.93836963 -0.20742935
-0.074963234 0.93618095 -0.20833056
0.017921168 0.93780404 -0.20552129
-0.190945 0.94340807 -0.20977536
-0.081256554 0.94459212 -0.2094239
-0.078219876 0.94290906 -0.2072275
-0.19428059 0.94518089 -0.20825647
-0.081432506 0.94657582 -0.20792839
-0.078845412 0.94711578 -0.20651528
-0.081485823 0.95341027 -0.20921013
-0.079609513 0.95357001 -0.20836794
-0.080767237 0.9584862 -0.20812693
-0.079892293 0.95675796 -0.20596461
-0.086209729 0.96446574 -0.20762113
-0.082821384 0.96246046 -0.20790699
-0.090259284 0.96734446 -0.20689955
-0.087175705 0.96680099 -0.20615029
-0.084433243 0.96582556 -0.20587155
-0.16025658 1.0088854 -0.20836043
-0.16146332 1.0113341 -0.20615551
-0.1582661 1.0127757 -0.20800123
-0.15049462 1.0137393 -0.2068736
-0.14801131 1.0130697 -0.20920892
-0.17272037 1.0186446 -0.20993476
-0.16601188 1.0194966 -0.20527677
-0.15723443 1.0172695 -0.20656645
-0.15358444 1.0164598 -0.2085322
-0.14742516 1.0175017 -0.20744698
-0.14229937 1.0194976 -0.20922272
-0.13806541 1.0179747 -0.20922303
-0.13163376 1.0176156 -0.20768431
-0.12895399 1.017643 -0.2089071
-0.1822978 1.0242257 -0.20919506
-0.17724331 1.0229299 -0.20828596
-0.17371705 1.02159 -0.20799515
-0.16547123 1.024823 -0.20894524
-0.16248654 1.0236492 -0.2087301
-0.15758632 1.0213326 -0.20780228
-0.1524592 1.0236028 -0.20798779
-0.14675498 1.0228957 -0.20719452
-0.14300413 1.0224901 -0.2077677
-0.13790795 1.0220722 -0.20728475
-0.13125612 1.0220019 -0.20577741
-0.12760091 1.0229919 -0.20821913
-0.19277041 1.0291216 -0.20933706
-0.18705499 1.0280089 -0.20803134
-0.18318184 1.026648 -0.20762448
-0.17767853 1.0260403 -0.20600209
-0.17329238 1.0250936 -0.20507309
-0.1674698 1.0276749 -0.20733656
-0.16291788 1.0269858 -0.2068572
-0.15733534 1.0277258 -0.20886807
-0.15252914 1.0276159 -0.20674142
-0.1473829 1.0263218 -0.20617418
-0.1438192 1.0255549 -0.20609121
-0.13725358 1.028427 -0.20690596
-0.12711318 1.0268837 -0.20665014
-0.12374677 1.0282981 -0.20864567
-0.20272391 1.033554 -0.20964591
-0.19293723 1.0310025 -0.20791905
-0.18773904 1.031957 -0.20767435
-0.18185961 1.0336759 -0.2082286
-0.17906366 1.0331726 -0.20755754
-0.17290114 1.0326719 -0.20581095
-0.16835923 1.0333414 -0.20732453
-0.16061859 1.0321531 -0.20663407
-0.15762359 1.0309756 -0.20641822
-0.14688551 1.0316638 -0.20842132
-0.13908148 1.0309575 -0.20599782
-0.12532204 1.030421 -0.20630853
-0.1239879 1.0319325 -0.20662019
-0.21215458 1.0385587 -0.2093042
-0.20775212 1.0375481 -0.20841943
-0.20335457 1.0366222 -0.20746973
-0.19553339 1.0389874 -0.2092655
-0.19238323 1.0381135 -0.20875122
-0.187631 1.0373995 -0.20749901
-0.18332466 1.0366614 -0.20643637
-0.17992632 1.0362368 -0.20547327
-0.17078573 1.0359032 -0.20557731
-0.16833977 1.0369488 -0.20581815
-0.1648041 1.0358899 -0.20528866
-0.12682141 1.0386075 -0.2078708
-0.12428339 1.0394948 -0.20946549
-0.21683042 1.0416939 -0.2086198
-0.21489692 1.0414524 -0.20807186
-0.20657293 1.0443699 -0.2092405
-0.202878 1.0433079 -0.20866641
-0.19793735 1.0413467 -0.20832495
-0.19197398 1.0430516 -0.20824896
-0.18829951 1.0420659 -0.20673655
-0.18287025 1.0440389 -0.2057673
-0.17818294 1.0412477 -0.2060553
-0.17458321 1.0443134 -0.20517795
-0.12686172 1.0417858 -0.20623656
-0.12294349 1.0410126 -0.20977847
-0.21656971 1.0488217 -0.20955071
-0.21261409 1.0475268 -0.20906043
-0.20751268 1.0472324 -0.20734438
-0.20278369 1.0470889 -0.207424
-0.19788636 1.0476015 -0.20831463
-0.19348851 1.0467663 -0.20767297
-0.1875823 1.045565 -0.20636429
-0.18140963 1.0499634 -0.20718782
-0.17847404 1.0495965 -0.2063559
-0.17321107 1.0458678 -0.20549847
-0.12669775 1.0478219 -0.20884202
-0.12456297 1.0459938 -0.2059653
-0.22559556 1.053152 -0.20958576
-0.22261089 1.0519783 -0.20937061
-0.21804383 1.0510074 -0.2083917
-0.21380048 1.0500768 -0.20750451
-0.20111391 1.0514736 -0.20687638
-0.19525364 1.0533068 -0.20983987
-0.19212237 1.0529156 -0.20895247
-0.18760678 1.0516454 -0.20822895
-0.18283178 1.0523601 -0.20584288
-0.17959732 1.0513508 -0.205403
-0.12666218 1.0527067 -0.20640895
-0.12471605 1.0509218 -0.20887409
-0.19793513 1.0562643 -0.208534
-0.19177841 1.0588837 -0.2094361
-0.18732363 1.0579224 -0.20849256
-0.18246266 1.0578547 -0.20668979
-0.17645031 1.0557541 -0.20604894
-0.12775241 1.0575469 -0.20768861
-0.19251446 1.0617083 -0.20749208
-0.18761413 1.0611973 -0.20602366
-0.18459587 1.0600104 -0.20580611
-0.13040189 1.0610222 -0.20610373
-0.12805755 1.0613885 -0.20780514
-0.18902473 1.0661823 -0.20928045
-0.18161964 0.72818804 -0.20317684
-0.17256418 0.72923076 -0.20426826
-0.18594629 0.73321295 -0.20326281
-0.18354709 0.73180509 -0.2027082
-0.17225926 0.73219895 -0.2030177
-0.1865043 0.73750997 -0.20248324
-0.18462937 0.73527926 -0.20272711
-0.17357464 0.73764133 -0.20266372
-0.1870281 0.74258977 -0.20204841
-0.17339997 0.74169105 -0.20283157
-0.18738502 0.74789745 -0.20261098
-0.19152299 0.75389111 -0.2023934
-0.18914899 0.75243717 -0.20263223
-0.19619592 0.75875622 -0.20333539
-0.19260916 0.75665092 -0.20212924
-0.20106153 0.76247746 -0.20325859
-0.19821909 0.76217252 -0.20241348
-0.20214075 0.76758873 -0.20293801
-0.19944273 0.76553172 -0.20023459
-0.12137865 0.76900947 -0.20357275
-0.11858781 0.7669239 -0.20248878
-0.20554581 0.7749418 -0.20445533
-0.20250541 0.77208143 -0.20179515
-0.12287498 0.77165186 -0.20206265
-0.20619895 0.77889919 -0.20457765
-0.20327558 0.7777164 -0.2021623
-0.12447283 0.77719778 -0.20308839
-0.20587561 0.78286958 -0.20282176
-0.20402639 0.78209478 -0.20222764
-0.21597889 0.78983152 -0.20468387
-0.21210811 0.78895253 -0.20389836
-0.20701277 0.78743672 -0.20259689
-0.21610297 0.79123056 -0.20362909
-0.21248733 0.79159731 -0.20249131
-0.20806319 0.79271972 -0.20280389
-0.21001963 0.79728287 -0.20185497
-0.2080912 0.79603165 -0.20210433
-0.20341364 0.80257642 -0.2018078
-0.12995967 0.80477196 -0.20047386
-0.20068781 0.80791497 -0.20320693
-0.13250248 0.80873102 -0.20194821
-0.12810349 0.80687475 -0.20090744
-0.22548227 0.81453085 -0.20419519
-0.22170556 0.81352568 -0.20084596
-0.21944316 0.81387919 -0.20248792
-0.21166949 0.81406319 -0.20313372
-0.20941508 0.81441545 -0.20476989
-0.2039371 0.81423175 -0.20375425
-0.19660674 0.81243443 -0.20340459
-0.13695896 0.81230468 -0.20207743
-0.13164921 0.81155229 -0.20182572
-0.12979993 0.81319666 -0.20187195
-0.23122667 0.81759501 -0.20354486
-0.22696985 0.81773156 -0.20217326
-0.22213949 0.81685972 -0.20188069
-0.21734212 0.81605864 -0.20307992
-0.21169294 0.81706792 -0.20186327
-0.20680526 0.81750262 -0.20163682
-0.20455855 0.81666189 -0.20202963
-0.19340011 0.81593573 -0.20340928
-0.18723315 0.8197546 -0.20336241
-0.18465319 0.81943226 -0.20263125
-0.14774328 0.81991756 -0.20059548
-0.1421722 0.81742775 -0.20191984
-0.13869232 0.81652164 -0.20407304
-0.13244838 0.81635761 -0.20366371
-0.23644361 0.82372367 -0.20440587
-0.23176453 0.82313907 -0.20307988
-0.22801119 0.82208639 -0.20234825
-0.22173299 0.82400161 -0.20355403
-0.21804653 0.82377583 -0.20398565
-0.21350878 0.82457006 -0.20428544
-0.20968601 0.82071346 -0.20137794
-0.20420708 0.82050741 -0.20037434
-0.18733843 0.82335556 -0.20388861
-0.18292227 0.82303023 -0.20214818
-0.15184093 0.82326955 -0.20204411
-0.147679 0.8235423 -0.20333299
-0.14338234 0.82059902 -0.20376046
0.056983955 0.82428217 -0.20224005
0.063092522 0.82465118 -0.20493321
0.068254814 0.8246603 -0.20169073
0.071159013 0.82470226 -0.20193775
0.077692263 0.82428139 -0.203365
0.081043378 0.82393944 -0.20062241
-0.24659835 0.82913142 -0.20402323
-0.24239445 0.82733065 -0.20326713
-0.23740624 0.82596362 -0.20181282
-0.23265535 0.82640719 -0.20084552
-0.22534971 0.82541627 -0.20415279
-0.22149025 0.8263427 -0.20194943
-0.2175312 0.82635963 -0.20142132
-0.21263586 0.82746315 -0.20167319
-0.20781896 0.82825345 -0.2036415
-0.19781646 0.82848001 -0.20451708
-0.19112083 0.82511461 -0.20461161
-0.18234429 0.82812667 -0.20293821
-0.1773596 0.82896811 -0.20163798
-0.17303026 0.82842726 -0.20041108
-0.16754322 0.82978755 -0.20123141
-0.16098587 0.82950038 -0.20241112
-0.15605533 0.82758063 -0.20147116
-0.15272738 0.82819527 -0.20344475
-0.14792761 0.82594788 -0.2029234
0.048678026 0.82835615 -0.20220216
0.052438579 0.82763326 -0.20133573
0.058021978 0.8275364 -0.20247407
0.062562384 0.82742649 -0.20262046
0.066954657 0.82682538 -0.20161481
0.07245218 0.82695144 -0.20311564
0.077433757 0.82661366 -0.20283836
0.082298823 0.82697904 -0.20144701
0.085459068 0.82894176 -0.20165388
0.090357639 0.82992345 -0.20096354
-0.24745902 0.83264905 -0.20158093
-0.2436845 0.8310591 -0.20139223
-0.21444397 0.83033794 -0.20009896
-0.20622508 0.83314753 -0.20245591
-0.20204505 0.8328805 -0.20266508
-0.19817126 0.83174002 -0.2020845
-0.19246432 0.83295101 -0.20385882
-0.18780224 0.83260953 -0.20275666
-0.18322627 0.83210623 -0.201406
-0.17822611 0.83211166 -0.20133275
-0.17334212 0.8326053 -0.20122591
-0.16756253 0.83287352 -0.20236807
-0.16344601 0.83212894 -0.20278387
-0.15782803 0.8326394 -0.20341325
-0.15234138 0.83208418 -0.20204043
-0.14785555 0.83354878 -0.20409761
-0.14266984 0.83291525 -0.20388994
0.043218073 0.83394939 -0.20278057
0.046454135 0.83180904 -0.20225513
0.051352624 0.83401763 -0.20337024
0.055011675 0.83156914 -0.20341137
0.062545873 0.83081418 -0.20028713
0.083029211 0.83041799 -0.20447049
0.087705307 0.83055055 -0.20265023
0.092830636 0.8319518 -0.20230693
0.096949354 0.83307922 -0.20234945
-0.25014898 0.83837497 -0.20341352
-0.24969169 0.83555114 -0.20014736
-0.20531903 0.83613455 -0.20135187
-0.20359401 0.83591902 -0.200863
-0.19219418 0.83596241 -0.20179236
-0.18912828 0.83615065 -0.20047358
-0.18015033 0.83637524 -0.20085558
-0.17748092 0.83532566 -0.20066318
-0.17051536 0.83852929 -0.2006359
-0.16785954 0.83639508 -0.20154159
-0.16261879 0.83764583 -0.2031002
-0.15773982 0.83719379 -0.20228639
-0.15249725 0.83646184 -0.20131479
-0.14781424 0.83713287 -0.20264353
-0.14261763 0.83702922 -0.20161305
-0.13886055 0.83821905 -0.20393528
-0.13187924 0.83895391 -0.2037646
-0.12694485 0.83831626 -0.20254023
-0.12359679 0.83843356 -0.20379585
-0.11873865 0.8384223 -0.2035735
0.039826192 0.83974755 -0.20192474
0.042577051 0.83757538 -0.20258546
0.048233014 0.83581901 -0.20408921
0.099181354 0.83698976 -0.20229508
0.10164674 0.8388539 -0.20140859
-0.25092167 0.84282935 -0.20276286
-0.24959594 0.84461921 -0.20227063
-0.16672403 0.84091413 -0.20278603
-0.16277894 0.8410399 -0.20118083
-0.15972307 0.84003943 -0.20080201
-0.14085814 0.84168929 -0.2009093
-0.13752691 0.84199983 -0.20277993
-0.1338367 0.84236199 -0.20271392
-0.1266508 0.84092253 -0.20146336
-0.12209337 0.84135342 -0.20160349
-0.11758714 0.84235311 -0.20251895
-0.11446749 0.84412569 -0.20413539
0.038066346 0.8427819 -0.20210494
0.1028642 0.84256554 -0.20217209
0.10664809 0.8440547 -0.20281123
-0.25163963 0.84768796 -0.20240565
-0.24980712 0.84700012 -0.20047569
-0.13178198 0.84775805 -0.20265979
-0.12700942 0.849796 -0.2045484
-0.12428599 0.84886837 -0.20423923
-0.11653256 0.8465423 -0.2012561
-0.11308865 0.84825456 -0.20316392
0.036929615 0.84739161 -0.20232514
0.10458526 0.84520549 -0.20057172
0.1072235 0.84717113 -0.20170358
-0.25201389 0.85290509 -0.20198275
-0.13117936 0.85117829 -0.20106451
-0.12742451 0.85249066 -0.20258421
-0.12206784 0.85391992 -0.20413849
-0.11518651 0.85070944 -0.20023893
-0.11203759 0.85276675 -0.20173541
-0.10915198 0.85226125 -0.20431176
-0.10332061 0.85372388 -0.20275052
0.036043011 0.85186428 -0.20268448
0.10890334 0.85183775 -0.20194416
0.11033572 0.85353577 -0.20306806
-0.25592801 0.85857892 -0.20299482
-0.25360247 0.85770875 -0.20259297
-0.13020691 0.85606831 -0.20082828
-0.12683901 0.85916227 -0.20242134
-0.12430184 0.85712582 -0.20305674
-0.11065878 0.85689563 -0.20076393
-0.10776769 0.85748792 -0.20279135
-0.10205296 0.85764617 -0.20248312
-0.099208571 0.85723352 -0.20428999
-0.026508801 0.85937709 -0.20378606
-0.021542771 0.85859329 -0.20280778
-0.01777315 0.85841274 -0.20187791
-0.013622604 0.85794008 -0.20286174
-0.0092135118 0.85962957 -0.20240571
0.034022216 0.85802799 -0.20214468
0.1097047 0.85712767 -0.20281848
0.11067013 0.85853231 -0.20288727
-0.25633654 0.86170071 -0.20334981
-0.25348878 0.86347008 -0.20352682
-0.12799701 0.8622545 -0.20042764
-0.12256126 0.86214799 -0.20375204
-0.11211271 0.86466622 -0.20119341
-0.10690304 0.86195856 -0.20123391
-0.1026761 0.86265379 -0.2021628
-0.09926682 0.86042225 -0.20263609
-0.030750746 0.86408836 -0.2043817
-0.02672446 0.86277485 -0.20377477
-0.022812864 0.86276966 -0.20212039
-0.017135249 0.86205775 -0.20151223
-0.012435597 0.86164314 -0.20322283
-0.0074010766 0.86254942 -0.20198303
-0.0028269903 0.86409998 -0.20282705
0.033992223 0.86242318 -0.20223807
0.035721987 0.86374736 -0.20053449
0.10951504 0.86180907 -0.20444319
0.11132166 0.86296248 -0.20324704
-0.25425813 0.86570817 -0.20205753
-0.12648976 0.86734581 -0.20115757
-0.1220856 0.86787093 -0.20349245
-0.11156201 0.86869997 -0.20253038
-0.10696221 0.86764592 -0.20224817
-0.1029162 0.86601919 -0.20239499
-0.031756014 0.86772466 -0.20190112
-0.02727928 0.86718798 -0.2016902
-0.024527898 0.86668128 -0.20169869
-0.0099919988 0.86577958 -0.20043962
-0.0023811308 0.86591363 -0.2029306
0.0028834434 0.86710072 -0.2027697
0.0074828207 0.86831164 -0.20191476
0.01263906 0.86923689 -0.2027963
0.017970031 0.86812174 -0.20386659
0.021885686 0.86701649 -0.20324224
0.032979365 0.86783391 -0.20367858
-0.12613234 0.87354434 -0.20145446
-0.1226383 0.87331891 -0.20275155
-0.11794907 0.87295121 -0.20411327
-0.11137521 0.8729291 -0.20236394
-0.10688184 0.87337643 -0.20315383
-0.10363294 0.87323827 -0.20392755
-0.097733237 0.87048149 -0.20431586
-0.037194416 0.87374938 -0.20454785
-0.033232912 0.87252194 -0.20278929
-0.027913094 0.87313712 -0.20227119
-0.023458723 0.87092847 -0.20041838
0.0088086156 0.87049884 -0.20017582
0.013236954 0.87146169 -0.2017688
0.017383771 0.87294638 -0.20318888
0.022816928 0.87264663 -0.20231065
0.027539127 0.87278485 -0.20216775
0.03191844 0.87083727 -0.20171773
-0.23212455 0.87870395 -0.20373912
-0.22669631 0.87712216 -0.20200916
-0.22213829 0.87827969 -0.20288661
-0.21681018 0.87944561 -0.20327638
-0.21211424 0.87708104 -0.20135176
-0.19833286 0.87722093 -0.2008739
-0.17701189 0.87953472 -0.20021372
-0.12256551 0.87828368 -0.2016753
-0.11750762 0.8782931 -0.20180644
-0.11251002 0.87748086 -0.20355779
-0.10933536 0.87620473 -0.20312831
-0.10200193 0.87754035 -0.20305386
-0.099600047 0.87884128 -0.20411627
-0.078581862 0.87802982 -0.20396928
-0.073369645 0.87724167 -0.20396367
-0.065456614 0.87915272 -0.20385115
-0.04024414 0.87672317 -0.2035591
-0.03743051 0.87729228 -0.20240392
-0.033317372 0.87748408 -0.20227851
-0.027684374 0.87741774 -0.2015619
0.029025346 0.87502921 -0.20196816
0.030614389 0.8758446 -0.20283559
-0.20048514 0.88033426 -0.20455925
-0.18779325 0.88157737 -0.20224851
-0.18311039 0.88250494 -0.20402725
-0.17273526 0.88243437 -0.2016129
-0.16677976 0.88280737 -0.20223479
-0.16307238 0.88385177 -0.20212296
-0.15720886 0.88274944 -0.20075262
-0.12667504 0.88064879 -0.20138125
-0.12072681 0.88446778 -0.20083022
-0.11634174 0.88200372 -0.20192288
-0.11282781 0.8806715 -0.20358276
-0.10321298 0.88314044 -0.20455842
-0.097714528 0.88203818 -0.20402206
-0.082536474 0.88205796 -0.20243454
-0.077705808 0.88142121 -0.20319474
-0.071554698 0.88049221 -0.20378561
-0.067768469 0.88170326 -0.20306973
-0.063359693 0.88316464 -0.20351633
-0.040991958 0.8824687 -0.20378512
-0.03808127 0.88258791 -0.20265085
-0.033976994 0.88117862 -0.20195796
-0.17528106 0.88648665 -0.20470884
-0.16810524 0.88559008 -0.20267527
-0.16302273 0.88793325 -0.20372093
-0.15709506 0.88706446 -0.2026262
-0.1535698 0.88747245 -0.2009588
-0.14537288 0.88994014 -0.20120123
-0.14284252 0.88962406 -0.20048414
-0.13796502 0.88702744 -0.20066729
-0.13285199 0.88877958 -0.2013537
-0.12319366 0.88888282 -0.20213591
-0.11959231 0.8871516 -0.20222887
-0.095516175 0.8855893 -0.20400098
-0.09426491 0.88700682 -0.20429327
-0.087102227 0.88675249 -0.20466858
-0.068001755 0.88556242 -0.20408881
-0.061447896 0.88577664 -0.20373802
-0.040698703 0.88802361 -0.20350155
-0.037903216 0.88708347 -0.20188144
-0.16125982 0.89440906 -0.20374675
-0.15795206 0.89238119 -0.20408122
-0.152841 0.89287776 -0.20211208
-0.14738581 0.89257121 -0.20121148
-0.14234972 0.89355445 -0.20107153
-0.13663456 0.89263934 -0.201501
-0.13211805 0.89303207 -0.20236413
-0.12834889 0.89323682 -0.20172897
-0.12370025 0.89130402 -0.20161121
-0.046742741 0.89294064 -0.20370792
-0.04087051 0.89227802 -0.20209269
-0.038103234 0.8925283 -0.20227909
-0.034301188 0.89206737 -0.20117532
-0.16608366 0.89774418 -0.20296137
-0.16243127 0.89767528 -0.20162109
-0.15719126 0.89766121 -0.20199415
-0.15344542 0.89692169 -0.20288844
-0.14701207 0.89764327 -0.20251812
-0.14271468 0.89731812 -0.20216683
-0.1377853 0.8980059 -0.20209658
-0.13250045 0.8970319 -0.20153606
-0.12783614 0.89728177 -0.20249383
-0.12432478 0.89526504 -0.2035248
-0.047505729 0.89710212 -0.20151941
-0.041978382 0.89823502 -0.20279171
-0.037840255 0.89797235 -0.20207086
-0.17000994 0.90484947 -0.20417945
-0.16738388 0.90257567 -0.20248714
-0.16436628 0.90190041 -0.20434767
-0.15536018 0.90138072 -0.20220329
-0.15229249 0.90233797 -0.20181964
-0.1466908 0.90169942 -0.2017176
-0.14379649 0.90265781 -0.20205884
-0.13766322 0.90128756 -0.2007895
-0.13247535 0.90248358 -0.20252202
-0.12722374 0.90198267 -0.20332257
-0.12250052 0.90264344 -0.2016982
-0.11936055 0.90412974 -0.20305106
-0.057140138 0.90410215 -0.20420165
-0.052356012 0.90267277 -0.20347971
-0.04764976 0.90201753 -0.20219342
-0.041739166 0.90213603 -0.20123674
-0.038885634 0.90110475 -0.2011086
-0.17118534 0.90798825 -0.20215575
-0.16790998 0.90645701 -0.20211132
-0.15832721 0.90741867 -0.20451571
-0.13461195 0.90510696 -0.20131943
-0.12076779 0.9057765 -0.20108899
-0.11757162 0.9074167 -0.20283371
-0.11379433 0.90935516 -0.20489572
-0.061763894 0.90793908 -0.20294465
-0.05777381 0.90777534 -0.20155008
-0.05339469 0.90630406 -0.20103711
-0.04792846 0.90569687 -0.20029755
-0.041814141 0.90787494 -0.20069402
-0.039870173 0.90685916 -0.20075199
0.023127712 0.90766037 -0.20185497
-0.17334467 0.91293275 -0.20307243
-0.11694492 0.91010725 -0.20198198
-0.11379317 0.91251433 -0.20330454
-0.066501096 0.91367304 -0.20342615
-0.063992925 0.91145867 -0.20155476
0.022168161 0.91198766 -0.20126596
-0.17666635 0.91795421 -0.20171404
-0.17461628 0.91717261 -0.20154706
-0.11104255 0.9178741 -0.20281629
-0.066684596 0.91804916 -0.20217541
-0.064069942 0.91726857 -0.20179203
0.019108513 0.91944212 -0.20056312
0.021482307 0.91757447 -0.20341411
-0.1818608 0.92416394 -0.20412177
-0.17680469 0.92217588 -0.20375733
-0.111177 0.92310238 -0.20191173
-0.10886147 0.92412609 -0.2014202
-0.067312121 0.92421609 -0.20420222
0.019390924 0.92236632 -0.20179844
0.020817911 0.92017239 -0.20157032
-0.18121734 0.92709762 -0.20156515
-0.17828976 0.92622322 -0.20157914
-0.10655912 0.92583412 -0.2024117
-0.10417395 0.92803204 -0.20322295
-0.07063625 0.92670166 -0.20351334
-0.067950942 0.92791897 -0.20152918
0.017237276 0.92817128 -0.20293149
-0.18163502 0.93009406 -0.2046804
-0.072631456 0.93390816 -0.20391458
-0.069165945 0.93276274 -0.20349365
0.014589652 0.932248 -0.20012578
0.01700489 0.93228531 -0.20205003
-0.075129814 0.93679154 -0.20259716
-0.072330087 0.93683136 -0.20149684
-0.069495402 0.93647718 -0.20069353
0.013978159 0.9396584 -0.20141454
0.018250424 0.93812758 -0.20168363
-0.07631097 0.9429177 -0.20353845
-0.073645338 0.94246727 -0.20287541
0.01281612 0.94274604 -0.20122172
0.016968906 0.94152462 -0.20219068
-0.077305049 0.94698519 -0.20204286
-0.073908344 0.94543242 -0.20064008
0.01327957 0.94658315 -0.2014993
0.016233629 0.94729388 -0.20213884
-0.080127537 0.95308292 -0.20230436
-0.078621797 0.95153922 -0.20294535
0.010540107 0.95411044 -0.20101731
0.015199955 0.95019698 -0.20122297
-0.081057191 0.95761693 -0.20277935
-0.08626347 0.96464759 -0.20218226
-0.083097875 0.9624505 -0.20270433
-0.087114967 0.96932447 -0.20413929
-0.083934173 0.96815735 -0.20317972
-0.077408984 0.96572316 -0.20024526
-0.074869618 0.96859992 -0.20083843
-0.082940519 0.97038472 -0.20171018
0.0066288467 0.97269958 -0.20108421
0.0043608891 0.97594917 -0.20020728
0.0060286736 0.97680497 -0.20111769
-0.16188857 1.0139049 -0.20451778
-0.15240419 1.0144258 -0.2049914
-0.16147304 1.0170467 -0.20326872
-0.15883188 1.0196574 -0.204078
-0.15070502 1.0186304 -0.20423941
-0.13466108 1.0198412 -0.20412701
-0.12890588 1.0184793 -0.20392814
-0.16564353 1.023527 -0.20354196
-0.16236472 1.0216573 -0.20195134
-0.15808497 1.0224113 -0.20329095
-0.14874913 1.0236957 -0.20326018
-0.14105481 1.0238179 -0.20412228
-0.13578251 1.0242262 -0.20101497
-0.13261087 1.0217936 -0.2029541
-0.17698719 1.0279468 -0.20423625
-0.17343539 1.0267059 -0.20385765
-0.16736482 1.0275372 -0.20197456
-0.16344008 1.0279691 -0.20352048
-0.15683641 1.0269789 -0.20199358
-0.1538561 1.0283467 -0.20370188
-0.14774585 1.0274723 -0.20258695
-0.14277287 1.0274009 -0.20234862
-0.13892108 1.02701 -0.20379476
-0.13240917 1.0271221 -0.20226932
-0.1294637 1.0291224 -0.20363103
-0.17807178 1.0304737 -0.20265968
-0.17151311 1.0329983 -0.20380801
-0.16680561 1.0325149 -0.20324695
-0.16303034 1.0329674 -0.20239443
-0.1564783 1.0331947 -0.20272946
-0.15300719 1.032638 -0.20285137
-0.14759882 1.0318491 -0.20160145
-0.14322503 1.0315868 -0.2004391
-0.13848096 1.0333505 -0.20113987
-0.13114712 1.0321165 -0.20076771
-0.12766768 1.0322881 -0.20348057
-0.18305461 1.0390296 -0.2044677
-0.17695837 1.0375314 -0.20318942
-0.17278187 1.0375977 -0.20277068
-0.16660327 1.038251 -0.20308878
-0.16218022 1.0373899 -0.20264615
-0.15747325 1.0370399 -0.20158371
-0.15228212 1.0359323 -0.20047426
-0.14254534 1.0392725 -0.20040098
-0.1368085 1.0366652 -0.20081495
-0.12825033 1.0361521 -0.20106432
-0.21476206 1.0446248 -0.20020518
-0.1860393 1.0402031 -0.20468283
-0.18096966 1.044337 -0.20480677
-0.17721061 1.0434766 -0.20372604
-0.17199229 1.04311 -0.20173125
-0.1674453 1.0419118 -0.20201574
-0.16282469 1.0411478 -0.20081289
-0.1498075 1.0427873 -0.20077448
-0.1408647 1.0411766 -0.20079355
-0.13884795 1.0434613 -0.20126465
-0.13214469 1.0429971 -0.20137592
-0.12876521 1.0435051 -0.20383874
-0.21675794 1.0480626 -0.20357546
-0.21242568 1.0459268 -0.20360371
-0.20822607 1.0463132 -0.20169587
-0.20409094 1.0488638 -0.20475289
-0.18504706 1.046855 -0.20438005
-0.17627521 1.0469505 -0.20186621
-0.17334722 1.0477965 -0.20248871
-0.16789547 1.0483019 -0.20202968
-0.16209157 1.0474627 -0.20018283
-0.15825866 1.0464252 -0.2011355
-0.14866714 1.049044 -0.2007266
-0.13637064 1.0477875 -0.2010774
-0.1320072 1.0474136 -0.20201853
-0.12736614 1.0466629 -0.2033729
-0.20333543 1.0511713 -0.20264667
-0.19917992 1.054111 -0.20406047
-0.17723326 1.0526193 -0.20304845
-0.17429152 1.0523989 -0.20133777
-0.16707474 1.0516196 -0.20086594
-0.15265989 1.050717 -0.20028456
-0.14184193 1.0526412 -0.2011238
-0.13194808 1.0524178 -0.20230195
-0.12894146 1.053544 -0.20415318
-0.18066832 1.0595196 -0.20469308
-0.1771228 1.0578622 -0.20464501
-0.17313543 1.0552597 -0.20082614
-0.14823414 1.05803 -0.20015964
-0.14081064 1.0560989 -0.20021088
-0.13759688 1.058699 -0.20148605
-0.13141608 1.0564399 -0.20070288
-0.1285868 1.0562255 -0.20308712
-0.18395559 1.0615498 -0.20434904
-0.14045571 1.0645425 -0.20313534
-0.13558766 1.0608711 -0.20200783
-0.13374035 1.0618191 -0.20301625
-0.18263835 0.72812438 -0.19770175
-0.1721808 0.72921884 -0.19906738
-0.18579191 0.73468298 -0.19805872
-0.18313837 0.73257244 -0.19796054
-0.17272636 0.73344702 -0.19728552
-0.18642977 0.73866367 -0.19915363
-0.18429586 0.73722345 -0.19719504
-0.17346475 0.73619229 -0.19727769
-0.18611421 0.74270952 -0.19701877
-0.18459851 0.74079317 -0.19677696
-0.18695004 0.74729812 -0.19653761
-0.18428527 0.74771619 -0.19519086
-0.19201499 0.75394154 -0.1985544
-0.18852858 0.75204426 -0.19871782
-0.19524023 0.75898445 -0.19980046
-0.19246863 0.75753504 -0.19711034
-0.18975905 0.75603491 -0.196044
-0.19647251 0.76256931 -0.19744703
-0.19390126 0.7622965 -0.19668025
-0.11896381 0.76421523 -0.19712405
-0.20128253 0.76781005 -0.19914237
-0.19824438 0.76784825 -0.19763321
-0.19401388 0.76895028 -0.19546886
-0.12175933 0.76775891 -0.19681753
-0.11908878 0.76562423 -0.19606188
-0.20108913 0.77335006 -0.19869152
-0.19813794 0.77224147 -0.1967292
-0.12343502 0.77083826 -0.1989302
-0.2015859 0.77709669 -0.19674774
-0.19887826 0.77620476 -0.19559862
-0.20640931 0.78467697 -0.1971163
-0.20266238 0.78269112 -0.19771004
-0.19955285 0.78175735 -0.19679831
-0.11286418 0.7817294 -0.19694695
-0.20563091 0.78793865 -0.19823687
-0.20380947 0.78645575 -0.19649446
-0.12581272 0.78855693 -0.19543588
-0.12158753 0.78812021 -0.19684899
-0.1180741 0.78793615 -0.19645907
-0.20644951 0.79269356 -0.1976182
-0.20355961 0.79077089 -0.19587955
-0.127755 0.79399961 -0.19664568
-0.12246721 0.79182816 -0.19647872
-0.11934164 0.79225683 -0.19877727
-0.20644785 0.79728132 -0.19821411
-0.20449531 0.7975893 -0.19596016
-0.13178127 0.79957259 -0.19611341
-0.12697041 0.79697102 -0.19577941
-0.12398373 0.79812312 -0.19760157
-0.20225874 0.8018406 -0.1968962
-0.19943991 0.80492371 -0.19578344
-0.13641652 0.80235308 -0.1964983
-0.13284786 0.80339998 -0.19761607
-0.12769745 0.80235285 -0.19799766
-0.12387852 0.80270809 -0.19758177
-0.19693291 0.80823231 -0.19753617
-0.1948383 0.80983573 -0.1954733
-0.14104107 0.8080436 -0.19542526
-0.13789867 0.80785102 -0.19805039
-0.13204241 0.80625933 -0.19804876
-0.12651843 0.80568391 -0.19726749
-0.22266489 0.81464827 -0.19950837
-0.21713428 0.81447726 -0.19852854
-0.20167184 0.81479603 -0.19977683
-0.19809631 0.81287658 -0.19672653
-0.1937342 0.81172299 -0.1975522
-0.14147851 0.81352603 -0.19782585
-0.13814472 0.81152517 -0.1975767
-0.13427673 0.81128407 -0.19923417
-0.22729938 0.81743085 -0.19667566
-0.22233453 0.81826323 -0.19795245
-0.21656524 0.81773639 -0.19734386
-0.21290754 0.81858784 -0.19801895
-0.20774736 0.81869054 -0.19844174
-0.20093787 0.81868792 -0.19840592
-0.19571964 0.8184706 -0.19581933
-0.1867044 0.81596816 -0.19883366
-0.18275629 0.81821173 -0.19653551
-0.17986175 0.81938571 -0.19708523
-0.15210421 0.81923604 -0.19743049
-0.1488435 0.81735343 -0.19732557
-0.14110631 0.81500459 -0.19738016
-0.23643106 0.82482469 -0.19954668
-0.23187254 0.82408333 -0.19608885
-0.22621159 0.82316893 -0.19933173
-0.22223823 0.822272 -0.19646992
-0.21622093 0.82138288 -0.19578309
-0.21364786 0.82136232 -0.19786353
-0.2072781 0.8222388 -0.19703117
-0.20311193 0.8232668 -0.1980263
-0.19918832 0.82291847 -0.19768147
-0.19313495 0.82357496 -0.19532633
-0.18642932 0.82231355 -0.19584151
-0.18320201 0.82291138 -0.19762221
-0.17790726 0.82330543 -0.19727288
-0.1722862 0.82278919 -0.19689453
-0.16723678 0.82341957 -0.19624689
-0.164143 0.82455826 -0.19609372
-0.15725216 0.823506 -0.19665234
-0.15482549 0.82240802 -0.19915794
0.072513208 0.8243764 -0.19669122
0.077355653 0.82444113 -0.19740272
0.080230646 0.82489049 -0.19948927
-0.24516417 0.82871366 -0.19981767
-0.24172416 0.8287034 -0.1985122
-0.2374147 0.82814175 -0.1976891
-0.23215972 0.82857323 -0.19828562
-0.22721118 0.82740921 -0.19748165
-0.22260414 0.82708526 -0.19628999
-0.21733153 0.82851219 -0.19865255
-0.21101746 0.8299098 -0.19912791
-0.20714566 0.82746893 -0.19703813
-0.20351025 0.82743961 -0.19744141
-0.19780104 0.82748795 -0.19649462
-0.19088884 0.82611948 -0.195851
-0.18336233 0.82718194 -0.19585538
-0.17659587 0.82703108 -0.1962108
-0.17308995 0.82760668 -0.19804543
-0.16728711 0.82796842 -0.19736102
-0.1618793 0.82676518 -0.19680268
-0.15835153 0.8276872 -0.19917619
0.04866197 0.82871646 -0.19660845
0.053225107 0.82872623 -0.19751647
0.057578392 0.8283428 -0.19795971
0.062580027 0.82838356 -0.19697364
0.067907505 0.82732564 -0.19757135
0.07235878 0.82746214 -0.19860391
0.077444993 0.82711804 -0.19687472
0.082488105 0.82772136 -0.19697724
0.08798115 0.82936835 -0.1976078
-0.24608517 0.83279228 -0.19695644
-0.2425012 0.8324222 -0.19639967
-0.23778115 0.830589 -0.19552146
-0.23425251 0.832219 -0.19687723
-0.2290642 0.83063543 -0.19614372
-0.21676822 0.8310349 -0.19645023
-0.21229292 0.8322255 -0.19779077
-0.20968434 0.83398151 -0.19541149
-0.19732384 0.83304274 -0.19795382
-0.19490512 0.83412218 -0.1989609
-0.18214308 0.83230984 -0.19800112
-0.17803876 0.83283699 -0.19795725
-0.17228734 0.83267218 -0.19700506
-0.16771629 0.83277237 -0.19790392
-0.16202985 0.83267438 -0.19921879
-0.15663594 0.83252645 -0.19811754
-0.15372352 0.83421701 -0.19960865
0.044722054 0.83223385 -0.19534196
0.046961557 0.83247179 -0.19802071
0.052303374 0.83165693 -0.1989955
0.055888459 0.83029187 -0.19823937
0.064393632 0.83058327 -0.19976349
0.067350052 0.83021396 -0.19892567
0.089216985 0.83107394 -0.19863872
0.092568539 0.83147609 -0.19782333
0.096044973 0.83324957 -0.197658
-0.2500692 0.83980739 -0.19693863
-0.24819469 0.83764404 -0.1979271
-0.24483892 0.83775085 -0.19656163
-0.21323755 0.8358382 -0.19530556
-0.2067796 0.8374818 -0.19925344
-0.20186067 0.83801401 -0.19855094
-0.19688529 0.83721447 -0.19728103
-0.19182394 0.83773947 -0.1977976
-0.18680936 0.83800268 -0.19812909
-0.182882 0.83730996 -0.19804201
-0.17705886 0.83786672 -0.19793923
-0.17315404 0.83694237 -0.19755381
-0.16739599 0.83803213 -0.19825438
-0.16178809 0.83784109 -0.19680944
-0.15678555 0.83739382 -0.19738767
-0.15298316 0.83828682 -0.1981433
-0.14688283 0.83839417 -0.19760494
-0.14301942 0.83927262 -0.19896245
-0.13029058 0.83983004 -0.19908567
-0.12640646 0.83799881 -0.19761805
-0.12299534 0.83974934 -0.19948015
0.039325379 0.83863348 -0.19767731
0.042200387 0.83700919 -0.19785914
0.097771488 0.83709419 -0.19767354
0.10013761 0.83931935 -0.19582337
-0.25037876 0.84236473 -0.19716878
-0.24849358 0.84101361 -0.19538687
-0.21038657 0.84108537 -0.19539969
-0.20589314 0.84260732 -0.19647221
-0.20237933 0.84145719 -0.19603667
-0.19800298 0.84019911 -0.19535673
-0.1909394 0.84208888 -0.19648728
-0.18784481 0.84098834 -0.19617271
-0.1825498 0.84304458 -0.19651818
-0.17779292 0.84148395 -0.19593124
-0.17174758 0.84265691 -0.1972826
-0.16735606 0.84206659 -0.19648907
-0.16194652 0.84409183 -0.19845867
-0.15799677 0.84252989 -0.19818108
-0.15306307 0.84206533 -0.19684893
-0.14708002 0.84219229 -0.19723868
-0.14335217 0.84263891 -0.1973376
-0.13687943 0.84361708 -0.19769989
-0.13210659 0.84321278 -0.19670789
-0.12861072 0.84314752 -0.19876528
-0.12288174 0.84289771 -0.19798486
0.038340468 0.84240866 -0.19740537
0.099389546 0.84117955 -0.19842063
0.10158803 0.84250796 -0.19774704
-0.25138646 0.8479116 -0.19903168
-0.2488683 0.84701604 -0.1969721
-0.19595785 0.84557194 -0.19565967
-0.19422612 0.84535557 -0.19516891
-0.18619563 0.84643966 -0.19523568
-0.17709067 0.84767467 -0.19610256
-0.17183839 0.84608901 -0.1956899
-0.1655525 0.84732848 -0.19676554
-0.16208462 0.84714979 -0.19610254
-0.15761553 0.84554911 -0.19565713
-0.15117225 0.84682333 -0.19618037
-0.14847441 0.84576249 -0.1959859
-0.1424191 0.84738976 -0.19625805
-0.13750893 0.8466906 -0.19646409
-0.13152693 0.84636188 -0.19617805
-0.12807211 0.84587926 -0.19782186
-0.12169959 0.84725666 -0.19673915
-0.1182963 0.84803212 -0.19908643
0.033462949 0.84968454 -0.19652654
0.036287259 0.847808 -0.1969264
0.10400672 0.84587663 -0.19718261
0.10637343 0.84797287 -0.19647902
-0.25040185 0.85097641 -0.19757055
-0.24802764 0.85176963 -0.19603923
-0.18323863 0.85172909 -0.19525617
-0.17406048 0.85337681 -0.19576991
-0.1685053 0.85123944 -0.1953325
-0.15582009 0.85029888 -0.19521716
-0.13675699 0.85348392 -0.19606185
-0.13397072 0.85200566 -0.19749145
-0.12552936 0.85371029 -0.19592096
-0.12043329 0.851107 -0.19581747
-0.11764549 0.85215139 -0.19753397
-0.11423433 0.85390186 -0.19939607
0.03362336 0.85266489 -0.19810466
0.035576861 0.8529129 -0.19849232
0.10838293 0.85256267 -0.19724256
-0.25136191 0.85719675 -0.19835314
-0.24790585 0.85754502 -0.19675922
-0.19944605 0.85950494 -0.1953191
-0.17664026 0.85514247 -0.19536409
-0.13197508 0.85817862 -0.19784737
-0.12262351 0.85800713 -0.19609326
-0.11734992 0.85637528 -0.19649155
-0.11287899 0.85785311 -0.19849519
-0.10357979 0.85974824 -0.19950593
-0.020497914 0.85929495 -0.19901139
-0.015877835 0.85858816 -0.19756901
-0.014262041 0.85941732 -0.19845104
-0.0058780247 0.85906082 -0.19572391
0.033529568 0.8573969 -0.19751385
0.035279684 0.8562634 -0.19596653
0.10930995 0.85689509 -0.19765429
0.11013082 0.85892808 -0.19811746
-0.25252208 0.86163878 -0.19753972
-0.24949811 0.86015505 -0.19531116
-0.23620291 0.86488032 -0.19581592
-0.19654012 0.86484504 -0.19531903
-0.1934936 0.86302114 -0.19559257
-0.18753003 0.86083275 -0.19503945
-0.13551816 0.86050463 -0.19537437
-0.13258001 0.86297166 -0.19629627
-0.1281292 0.86374474 -0.19930416
-0.12113267 0.86081266 -0.19587879
-0.11814778 0.86260295 -0.19737795
-0.1121316 0.86204106 -0.19748729
-0.10901699 0.86263078 -0.1991944
-0.10233773 0.86115533 -0.19979605
-0.02133465 0.86334276 -0.19878012
-0.017635925 0.86276656 -0.19777648
