# .PCD v0.7 - Point Cloud Data file format
VERSION 0.7
FIELDS x y z
SIZE 4 4 4
TYPE F F F
COUNT 1 1 1
WIDTH 1380
HEIGHT 1
VIEWPOINT 0 0 0 1 0 0 0
POINTS 1380
DATA ascii
0.051191688 0.86413139 -0.2542634
0.056123748 0.8640753 -0.25274408
0.06939619 0.86280894 -0.25440788
0.072630115 0.86203152 -0.25464368
0.081654772 0.86250603 -0.25477064
0.093434088 0.86241901 -0.25412184
0.097370371 0.86255062 -0.25360292
0.10303548 0.86235398 -0.25274414
0.10829119 0.86261326 -0.25325671
0.11303595 0.86227226 -0.25344402
0.11551207 0.86271822 -0.25432485
0.1213419 0.86102068 -0.25435495
0.13362601 0.86399555 -0.25446528
0.13809413 0.86313498 -0.25435701
0.14204413 0.86180651 -0.25268888
0.1486586 0.86104763 -0.25425607
0.15308547 0.86253858 -0.2540088
0.15792404 0.86248243 -0.2536988
0.16194792 0.86378902 -0.25425854
0.16593775 0.86359543 -0.25446355
0.17295296 0.8617571 -0.25396708
0.17652304 0.86256838 -0.25384501
0.18111609 0.86175722 -0.25381237
0.18562391 0.86016917 -0.25410256
0.21971002 0.86397243 -0.25478896
0.22364366 0.86276191 -0.25442696
0.22786821 0.86117923 -0.25448668
0.31866717 0.86395013 -0.2543681
0.32275677 0.86173278 -0.25455612
0.33021477 0.8608042 -0.25244528
0.33593589 0.86332798 -0.25492096
0.34233019 0.86081684 -0.25446215
-0.47514319 0.86571294 -0.25386402
-0.47168732 0.86654061 -0.25348964
-0.46861953 0.86839437 -0.254581
-0.45687729 0.86786067 -0.25451279
-0.4524222 0.86664534 -0.2538904
-0.44689864 0.86686957 -0.25227612
-0.44271398 0.86726058 -0.25224555
-0.43793976 0.86901975 -0.25157666
-0.43313566 0.86816645 -0.25053909
-0.42708489 0.86740607 -0.25042662
-0.42278597 0.86715704 -0.25137642
-0.41782761 0.86802977 -0.25411439
-0.41288447 0.8676886 -0.25343731
-0.4074904 0.86765164 -0.25269109
-0.40294561 0.86824298 -0.25226131
-0.39777672 0.86806089 -0.25267678
-0.39283714 0.86788815 -0.25400376
-0.38741359 0.86723655 -0.25364599
-0.38189927 0.86830258 -0.25283077
-0.37752923 0.86708009 -0.25254351
-0.37318853 0.8665995 -0.25151697
-0.36662579 0.86765319 -0.25350121
-0.3627938 0.86593002 -0.25339815
-0.35786986 0.86776811 -0.25432596
-0.35379419 0.86709106 -0.25436899
-0.34615779 0.86821091 -0.25456309
-0.34203371 0.86645681 -0.25437316
-0.33668798 0.86874062 -0.25452334
-0.33271268 0.86827999 -0.25203961
-0.31223109 0.86513281 -0.25468865
-0.30606705 0.86857355 -0.25494435
-0.30060837 0.86642981 -0.25455266
-0.29778609 0.86695999 -0.25405607
-0.29213515 0.86743295 -0.25451976
-0.28725454 0.86535704 -0.25429496
-0.2803477 0.86841857 -0.25011915
-0.27636695 0.86674011 -0.25437152
-0.27148953 0.86647671 -0.25210819
-0.26728797 0.867845 -0.25311267
-0.26149154 0.86731267 -0.25272501
-0.25754216 0.8663581 -0.25251314
-0.25281245 0.86853707 -0.253344
-0.24687603 0.86644548 -0.25336835
-0.23644686 0.8674143 -0.25207925
-0.22609553 0.86871749 -0.25375736
-0.22364327 0.86813819 -0.25443792
-0.21952797 0.86946929 -0.25025934
-0.21172504 0.86896217 -0.25277212
-0.20732339 0.86681193 -0.25347853
-0.20290533 0.86715513 -0.25252229
-0.19713795 0.86809826 -0.25341633
-0.19302855 0.86809897 -0.25303522
-0.18846272 0.86634582 -0.25234923
-0.18206388 0.86811721 -0.25257277
-0.1793085 0.86822313 -0.25263786
-0.17184442 0.86743301 -0.25103906
-0.16779065 0.86806697 -0.2539807
-0.16144702 0.86701506 -0.25409889
-0.15559353 0.86628771 -0.25228041
-0.15312064 0.86796731 -0.25342342
-0.14732319 0.86758286 -0.25276574
-0.14125812 0.86703026 -0.25166857
-0.13761958 0.86737162 -0.25339913
-0.13223641 0.86734647 -0.25261259
-0.12693726 0.86754334 -0.25263745
-0.12266406 0.86772341 -0.2534875
-0.11678063 0.86721873 -0.25306422
-0.11188194 0.8678931 -0.25333968
-0.10727232 0.86758876 -0.25291693
-0.10237065 0.8673622 -0.25334686
-0.097491793 0.86729079 -0.25181952
-0.093518637 0.86809099 -0.25272653
-0.087351747 0.86774343 -0.25267217
-0.08187364 0.86881077 -0.25338966
-0.07832966 0.86782348 -0.25437441
-0.072955668 0.86774367 -0.25322273
-0.067457199 0.8660965 -0.25296098
-0.062824361 0.86718535 -0.2542173
-0.056831565 0.869142 -0.25431582
-0.052248325 0.86761492 -0.25415334
-0.048423123 0.86690408 -0.25462782
-0.043598436 0.86803383 -0.25463268
-0.037868772 0.86643749 -0.25453126
-0.03079815 0.86723423 -0.25430259
-0.027933173 0.86667418 -0.254132
-0.024030648 0.86603385 -0.25483659
-0.01787948 0.86663496 -0.25396696
-0.01064763 0.86732239 -0.25392312
-0.0088054407 0.86940974 -0.25435328
-0.0031181481 0.8674944 -0.25376573
0.0025522986 0.86756688 -0.25338843
0.0080309557 0.86569583 -0.25460228
0.014406825 0.86712337 -0.25349697
0.016305698 0.86787623 -0.25409368
0.022218788 0.86610228 -0.25478083
0.052940954 0.86825329 -0.25432348
0.059231713 0.86859822 -0.25296521
0.060691863 0.86824989 -0.25431541
0.072421238 0.86737329 -0.25454155
0.077334903 0.86762047 -0.25423339
0.083903134 0.86702913 -0.25430024
0.092574179 0.8670339 -0.25368994
0.09729296 0.86725366 -0.25342682
0.10160345 0.86782014 -0.25297421
0.10732521 0.86687446 -0.25391731
0.11279728 0.86710912 -0.25406471
0.11771777 0.86618567 -0.25435203
0.12022974 0.86903191 -0.2549386
0.1326248 0.86810273 -0.25434792
0.13705507 0.86737192 -0.25404525
0.14103022 0.8681339 -0.25420004
0.14750743 0.86704516 -0.25444415
0.15335397 0.86826527 -0.25439641
0.15788101 0.8678894 -0.2540912
0.16229987 0.86677474 -0.2540713
0.17434514 0.86602485 -0.25448769
0.17787582 0.86623389 -0.25404081
0.180471 0.86766374 -0.25445348
0.21901184 0.86803043 -0.25425071
0.22206576 0.86898088 -0.25416037
0.22515225 0.86592215 -0.2540482
0.31333452 0.86632216 -0.25453189
0.31623483 0.86596102 -0.25371104
0.32775038 0.86863464 -0.25386032
0.33222833 0.86743408 -0.25309956
-0.47655454 0.87300676 -0.25397182
-0.4723185 0.87216234 -0.25338504
-0.46808419 0.87270546 -0.25397089
-0.46296194 0.8717342 -0.25373659
-0.45559865 0.87378049 -0.25467753
-0.45197415 0.87332404 -0.25352409
-0.44711345 0.87240434 -0.2523973
-0.44232282 0.87196654 -0.25146541
-0.43689132 0.87141699 -0.25085527
-0.43303671 0.87354624 -0.25025016
-0.42648637 0.87305456 -0.25117832
-0.4222146 0.87209022 -0.2525878
-0.41762578 0.87355947 -0.25345832
-0.41277939 0.87267184 -0.25252026
-0.40736473 0.87210697 -0.25122568
-0.40311164 0.87266302 -0.25223249
-0.39760813 0.87166905 -0.25292146
-0.39253452 0.87311023 -0.25314394
-0.38782695 0.87191749 -0.25290665
-0.3820008 0.87196034 -0.25210226
-0.37779599 0.87268543 -0.25227571
-0.37222904 0.87268692 -0.25289804
-0.36777025 0.87300789 -0.25370574
-0.36274114 0.87186885 -0.2540153
-0.35660979 0.87349272 -0.25438583
-0.35249722 0.87117141 -0.25464708
-0.34979892 0.8701117 -0.25445348
-0.34157526 0.87294394 -0.25440374
-0.33839685 0.8725183 -0.25151128
-0.33116207 0.87244844 -0.25167429
-0.32942048 0.8725363 -0.25130945
-0.29264194 0.8741703 -0.25472108
-0.28646293 0.87094474 -0.2549071
-0.27829176 0.87224746 -0.25232053
-0.27316225 0.87190396 -0.25439778
-0.26723966 0.87174684 -0.25176439
-0.26305529 0.87263602 -0.25380382
-0.25736669 0.87213862 -0.25253111
-0.25181642 0.87279147 -0.25018618
-0.24881724 0.87301624 -0.25487408
-0.24305053 0.87268847 -0.25039598
-0.23585284 0.8708477 -0.25021994
-0.23414931 0.87044126 -0.25179514
-0.227091 0.87152594 -0.25216326
-0.22245094 0.87390083 -0.2535105
-0.21679889 0.87226164 -0.25325078
-0.21160105 0.87341195 -0.25419876
-0.20784378 0.87314779 -0.25255877
-0.20245036 0.87214702 -0.25257558
-0.19800687 0.87246913 -0.25335276
-0.19240461 0.87317491 -0.25279954
-0.1876034 0.87166548 -0.25387028
-0.18491822 0.87214088 -0.25163549
-0.17779197 0.87278593 -0.25232339
-0.17292839 0.87419486 -0.25365371
-0.16602616 0.87176305 -0.25353771
-0.1627699 0.87329584 -0.25400612
-0.15850094 0.87279558 -0.25355607
-0.15229827 0.8725937 -0.25175369
-0.14684084 0.87212133 -0.25240803
-0.14342412 0.87267071 -0.25333866
-0.13703175 0.8719449 -0.2529971
-0.13266082 0.87224144 -0.25327832
-0.1273791 0.87316304 -0.25369671
-0.12206481 0.87221581 -0.25200978
-0.11846723 0.87211734 -0.25393778
-0.11294632 0.87246853 -0.25317863
-0.10769006 0.8724736 -0.25373852
-0.10338315 0.87210965 -0.25327644
-0.099135652 0.87292814 -0.25298882
-0.092330374 0.87248725 -0.25179163
-0.087032095 0.87253654 -0.25263515
-0.0830677 0.87286025 -0.25354004
-0.077250354 0.87197798 -0.25314924
-0.072749428 0.87165499 -0.25264332
-0.067482844 0.87325907 -0.25441104
-0.061797772 0.87287366 -0.25414237
-0.057329763 0.871777 -0.25367036
-0.04839547 0.87345356 -0.25419351
-0.042643122 0.87123811 -0.25378653
-0.039515242 0.87478226 -0.25451696
-0.032969587 0.87410277 -0.25461003
-0.027373608 0.87286431 -0.25422055
-0.013409685 0.87276149 -0.25447565
-0.0071139908 0.87167335 -0.25457335
-0.0010057355 0.87169063 -0.25396338
0.00049127004 0.87252223 -0.25474864
0.006415986 0.87209976 -0.25421256
0.012004294 0.87308371 -0.25407594
0.017896252 0.87210387 -0.25379437
0.027060164 0.87363368 -0.25488052
0.054780461 0.87221903 -0.25307509
0.057180852 0.87285 -0.25399879
0.062991932 0.87235808 -0.25409561
0.06738288 0.87447155 -0.25449485
0.074396811 0.87046421 -0.25457329
0.077607252 0.87208509 -0.25385734
0.081293613 0.87359351 -0.25440824
0.087356955 0.8719303 -0.25460905
0.093108654 0.87313974 -0.25449023
0.098028176 0.87134707 -0.2530086
0.10305265 0.87215078 -0.25437069
0.10979119 0.87022513 -0.25421262
0.11137297 0.87256426 -0.25398824
0.11635754 0.87263733 -0.25414324
0.12933311 0.87393254 -0.25427735
0.1333342 0.87201226 -0.25432736
0.13689479 0.87195265 -0.25397176
0.14373638 0.87229902 -0.25427827
0.14943725 0.8708179 -0.25409561
0.15235583 0.87211984 -0.25451475
0.15789548 0.87277114 -0.25389916
0.16179816 0.87358105 -0.25437447
0.16665456 0.87257928 -0.25464964
0.17711964 0.87104058 -0.25419223
0.21835011 0.87274432 -0.25372943
0.22144398 0.87260842 -0.25390041
0.24279362 0.8739776 -0.25412402
0.3143647 0.87458891 -0.25427148
0.31763893 0.87246627 -0.25469574
0.32187608 0.87108123 -0.25417197
0.32900226 0.8719089 -0.25080413
0.33218715 0.87283075 -0.25329357
0.3376773 0.87208718 -0.25400168
-0.48036537 0.87967134 -0.25416082
-0.47595346 0.87736809 -0.25429365
-0.47198281 0.87658685 -0.25339589
-0.46802315 0.8781451 -0.25420284
-0.46297705 0.87782991 -0.25384834
-0.45763588 0.87638909 -0.25357091
-0.45228556 0.87803268 -0.25223356
-0.44760528 0.87782747 -0.2516585
-0.44197488 0.87779254 -0.2506828
-0.43898568 0.87684649 -0.25145975
-0.43206251 0.87841845 -0.25135607
-0.42718658 0.87768942 -0.2517136
-0.42194217 0.8782109 -0.25164902
-0.41797826 0.87667853 -0.25134569
-0.41271979 0.87700522 -0.25121036
-0.40707439 0.87808317 -0.25139898
-0.40254304 0.87670392 -0.25119191
-0.39823321 0.87671864 -0.25309065
-0.39246678 0.87746996 -0.25261277
-0.38713765 0.87725204 -0.25375724
-0.38338527 0.87577838 -0.25348803
-0.37714162 0.87814975 -0.25358939
-0.3729488 0.87701315 -0.25385314
-0.36778995 0.8791548 -0.25418663
-0.36250934 0.87721092 -0.25329301
-0.35736042 0.87666637 -0.25376663
-0.35254046 0.87866807 -0.25407356
-0.34798297 0.87678748 -0.25381815
-0.34207448 0.87799931 -0.2545982
-0.33731607 0.87876475 -0.25273615
-0.2975851 0.87675089 -0.25457224
-0.29062137 0.87958544 -0.25001544
-0.28801253 0.87891704 -0.25453293
-0.28208494 0.87610799 -0.25448668
-0.27357137 0.87760413 -0.25180382
-0.26794359 0.87592024 -0.25456056
-0.26208243 0.87814629 -0.25201878
-0.25673497 0.87749177 -0.25295264
-0.25442433 0.87836468 -0.25189137
-0.23106065 0.8787021 -0.25247166
-0.22791454 0.87757343 -0.25317812
-0.22268768 0.87668896 -0.2519359
-0.21725523 0.87839723 -0.2533491
-0.21293651 0.87816203 -0.2526384
-0.20600696 0.87668282 -0.25085565
-0.20207298 0.87786859 -0.25327596
-0.19871384 0.87637079 -0.25331339
-0.19275627 0.87805432 -0.25399053
-0.18717095 0.87754101 -0.25377828
-0.18228762 0.87558597 -0.2540713
-0.17673977 0.87877131 -0.25415933
-0.17214283 0.87733203 -0.25304955
-0.16957897 0.87799019 -0.25443584
-0.16329157 0.87797248 -0.25260872
-0.15715699 0.87761998 -0.25220639
-0.15070422 0.87631744 -0.25115973
-0.14743978 0.87818575 -0.25313902
-0.14165361 0.87668741 -0.25365254
-0.13873477 0.8783229 -0.25426286
-0.13178498 0.8774749 -0.25373715
-0.12796079 0.87738758 -0.25411135
-0.12208906 0.87750864 -0.25308603
-0.11721912 0.87726718 -0.253014
-0.11275494 0.87682682 -0.25293678
-0.10832289 0.87791449 -0.25377101
-0.10258321 0.87821144 -0.25384635
-0.097979307 0.87768394 -0.25339052
-0.091763757 0.87765634 -0.25152293
-0.088631839 0.87783742 -0.25293085
-0.082381092 0.87752002 -0.25174439
-0.079222068 0.87713987 -0.25386447
-0.072364084 0.87786359 -0.25411436
-0.066239722 0.87707329 -0.25372973
-0.062255338 0.87833357 -0.25407714
-0.058180571 0.87800026 -0.25425598
-0.052378781 0.87662464 -0.25450376
-0.047712959 0.87725812 -0.25356862
-0.04400618 0.87782121 -0.25488812
-0.031307526 0.87598598 -0.25499815
-0.028090063 0.87807655 -0.25419849
-0.023863211 0.87604904 -0.25445554
-0.011034611 0.8773641 -0.25406709
-0.0091272285 0.87910718 -0.25472319
-0.0035692707 0.87742549 -0.25452647
0.0035263537 0.87777698 -0.2545425
0.0090475185 0.87654585 -0.25408921
0.012459524 0.87757182 -0.25373179
0.015356717 0.87811911 -0.25423551
0.03513645 0.87702698 -0.25415248
0.04783814 0.87682593 -0.25482035
0.05353678 0.87657738 -0.25401467
0.058043052 0.87763274 -0.25392634
0.060708135 0.87893552 -0.25445932
0.067063406 0.87847352 -0.25428942
0.071942002 0.87727612 -0.25468102
0.078224577 0.87679046 -0.25446478
0.082826555 0.87691706 -0.25396675
0.089564696 0.87739503 -0.25363141
0.0915149 0.87720644 -0.25426114
0.095880032 0.87792122 -0.25431034
0.10393801 0.87955636 -0.25445345
0.1081838 0.87795156 -0.25454149
0.11294343 0.87744975 -0.25310808
0.1180191 0.87710166 -0.25435844
0.12047964 0.87775612 -0.25487995
0.12906423 0.87555659 -0.25324273
0.1320702 0.87715942 -0.25443965
0.13709399 0.87857974 -0.25404271
0.14264552 0.87843269 -0.25444645
0.14692935 0.87712735 -0.25441399
0.15356225 0.87676066 -0.25441945
0.15847176 0.87799287 -0.25443906
0.16360827 0.87733436 -0.25393933
0.16788013 0.8775726 -0.25368348
0.17238551 0.87881547 -0.25446305
0.17538938 0.87806445 -0.25477618
0.20802474 0.8787728 -0.25447625
0.21392909 0.87932724 -0.2548103
0.21776162 0.87691104 -0.25368193
0.22912399 0.87989438 -0.25467288
0.233365 0.87768042 -0.25480056
0.23862836 0.87533915 -0.25463891
0.3079704 0.87710011 -0.25473028
0.32299346 0.87850738 -0.2545405
0.32732511 0.87624598 -0.25467095
0.33123133 0.87644845 -0.25302282
0.33672327 0.87507588 -0.252011
-0.47148094 0.88139248 -0.25473434
-0.46977249 0.88117975 -0.25425079
-0.46263158 0.88241118 -0.25454581
-0.45696327 0.88088757 -0.25386137
-0.45273805 0.88297904 -0.25360203
-0.447436 0.88324541 -0.25207484
-0.44242898 0.88366872 -0.25117114
-0.43814552 0.88176781 -0.25093058
-0.43250808 0.88235736 -0.25147161
-0.42759022 0.88176179 -0.25135893
-0.4232589 0.8817398 -0.25070003
-0.41814879 0.88401324 -0.25094819
-0.41295099 0.88173985 -0.25075817
-0.40687919 0.8822459 -0.25053689
-0.40168479 0.88129932 -0.25054941
-0.39804634 0.88194036 -0.25304618
-0.39400938 0.88083935 -0.25355035
-0.38721567 0.88279861 -0.25473306
-0.38238558 0.8810426 -0.25427553
-0.37702781 0.88265675 -0.25395194
-0.3725234 0.88162577 -0.25404409
-0.36901233 0.88118863 -0.25305036
-0.36158919 0.88237786 -0.25363135
-0.35769442 0.88133365 -0.25393811
-0.35227746 0.88399547 -0.25420627
-0.34699506 0.88229626 -0.25441745
-0.34246776 0.88056582 -0.25405523
-0.33767423 0.88209522 -0.25368121
-0.33273572 0.88214254 -0.25441939
-0.31266841 0.88403285 -0.25458452
-0.29664436 0.88382179 -0.25336552
-0.29200852 0.88128835 -0.25418788
-0.28711125 0.88244051 -0.25264764
-0.27948296 0.88151461 -0.25455147
-0.27153781 0.88078618 -0.25097439
-0.26707801 0.8823694 -0.25446579
-0.26164925 0.88079947 -0.25114405
-0.25763041 0.88409704 -0.25281918
-0.25361437 0.88234156 -0.25467181
-0.24575424 0.88201654 -0.25041455
-0.24367034 0.88437772 -0.25090116
-0.23576832 0.88328612 -0.25091416
-0.22723064 0.88201928 -0.25152692
-0.22274274 0.88175476 -0.25326249
-0.21763127 0.88318557 -0.25283298
-0.21195395 0.88365316 -0.25340179
-0.20763572 0.88158816 -0.2536884
-0.20187344 0.88346922 -0.25237131
-0.19705766 0.88249612 -0.2527349
-0.19432876 0.88394666 -0.25082713
-0.18686315 0.88303804 -0.25230509
-0.18219444 0.88205498 -0.25358325
-0.17732358 0.88200307 -0.25216758
-0.17184262 0.88221371 -0.25195724
-0.16837941 0.8827576 -0.2529985
-0.16176485 0.88190836 -0.25185373
-0.15743247 0.88242614 -0.25318652
-0.15279001 0.88246906 -0.2532725
-0.14636238 0.8815558 -0.25254533
-0.1435619 0.88297862 -0.25398314
-0.13804911 0.88187009 -0.25314277
-0.13498554 0.88406253 -0.25438687
-0.1277435 0.88315022 -0.25381947
-0.12218361 0.88211924 -0.25364825
-0.11704443 0.88222599 -0.25274029
-0.11279918 0.88304895 -0.25378993
-0.10663723 0.88206214 -0.25348768
-0.10338977 0.88233966 -0.25447568
-0.097931579 0.88348895 -0.25387675
-0.092459634 0.88242584 -0.25368702
-0.08671739 0.88303989 -0.25273883
-0.082250908 0.88287705 -0.25246638
-0.076964974 0.88201612 -0.25383589
-0.0686621 0.88292259 -0.25454324
-0.062856369 0.88269097 -0.25379983
-0.055419527 0.88231039 -0.2544747
-0.047872555 0.88373649 -0.2543121
-0.04203257 0.88418597 -0.25465059
-0.036881644 0.8821339 -0.25456569
-0.033711925 0.88250095 -0.25472215
-0.027862627 0.88200331 -0.25473726
-0.02364601 0.88415647 -0.25463054
-0.01868562 0.88195008 -0.25447816
-0.014717093 0.88078374 -0.25489661
-0.0075695878 0.8829627 -0.25403348
-0.00078933511 0.88265824 -0.25412607
0.0025824765 0.88250101 -0.25416034
0.0074666003 0.88281888 -0.2529656
0.012199922 0.882487 -0.25340161
0.01653753 0.88445377 -0.25447527
0.031365275 0.88137579 -0.25444266
0.038750719 0.88228679 -0.25440964
0.040259771 0.88486999 -0.25432193
0.049346328 0.88055909 -0.25415251
0.05188271 0.88343304 -0.2547448
0.057557687 0.88214171 -0.25444555
0.061781555 0.88095611 -0.25430474
0.069434427 0.88230449 -0.25426644
0.07337945 0.8835305 -0.25364047
0.076830909 0.88354397 -0.25453651
0.082600974 0.88275456 -0.25299469
0.086685844 0.88266402 -0.25359502
0.092185974 0.88224185 -0.25329781
0.095388785 0.8839941 -0.25499141
0.10716724 0.88260901 -0.25377142
0.11221434 0.8824805 -0.2536633
0.11678397 0.88227403 -0.25376675
0.12256405 0.88247645 -0.25417823
0.12757441 0.8820014 -0.25431183
0.13398075 0.88140285 -0.25425196
0.13759455 0.88199228 -0.254794
0.14285509 0.88181418 -0.2539452
0.14772178 0.88218409 -0.25405455
0.15098247 0.88363087 -0.25439742
0.1568193 0.88335609 -0.25371623
0.1623369 0.8825739 -0.25413701
0.16734953 0.88248539 -0.25360146
0.17104459 0.88195348 -0.2534577
0.19109932 0.88437188 -0.25458449
0.2091113 0.88000393 -0.25472996
0.21019784 0.88123506 -0.25498372
0.24538101 0.88183671 -0.25492001
0.31761751 0.88089859 -0.25470564
0.32731384 0.88470489 -0.25465614
0.33370805 0.88275617 -0.25375432
0.33641982 0.88140994 -0.25378123
-0.47856787 0.88509208 -0.25452092
-0.46973944 0.88612175 -0.25433177
-0.45632884 0.88587213 -0.25473276
-0.45191276 0.8872571 -0.25413328
-0.44713852 0.88898623 -0.25276372
-0.44289884 0.88831615 -0.25167584
-0.43815753 0.88680118 -0.25106224
-0.43235916 0.88702381 -0.25133467
-0.42678699 0.88747615 -0.25151253
-0.42252702 0.88597214 -0.25107384
-0.41802999 0.8896181 -0.25047427
-0.40679398 0.88851416 -0.2510744
-0.40208238 0.88759547 -0.25130513
-0.39716405 0.8879742 -0.25218987
-0.39147672 0.8897754 -0.25484774
-0.38756251 0.88870907 -0.25419602
-0.38213712 0.88654476 -0.25383317
-0.37755862 0.88656884 -0.25384113
-0.37285545 0.88815516 -0.25434271
-0.36709547 0.88556582 -0.25418717
-0.35790312 0.8866092 -0.2533609
-0.336918 0.8891595 -0.25447246
-0.33240014 0.8878628 -0.25377208
-0.32959774 0.88700259 -0.25324517
-0.32340434 0.88880831 -0.25491428
-0.31790948 0.88665038 -0.25452
-0.30740333 0.88813633 -0.25466073
-0.30248585 0.88604474 -0.25443426
-0.29622504 0.88953865 -0.25461131
-0.29248163 0.8880716 -0.25344935
-0.28835428 0.88614577 -0.25428435
-0.26793522 0.88715076 -0.25298223
-0.2628879 0.88729364 -0.25430518
-0.25729972 0.88725865 -0.25137144
-0.25296587 0.88863438 -0.25284588
-0.24848412 0.88793325 -0.2507523
-0.23217177 0.88812423 -0.25143385
-0.22566384 0.8858974 -0.25083309
-0.22263719 0.88788247 -0.25269347
-0.21699589 0.88691038 -0.25040182
-0.21220054 0.88867587 -0.25321752
-0.20852797 0.88855237 -0.25385782
-0.20276192 0.88627845 -0.25328985
-0.1976964 0.88778293 -0.25387949
-0.19198719 0.88740027 -0.25257301
-0.18847159 0.88626575 -0.25390765
-0.1823037 0.8876496 -0.2527456
-0.17748146 0.88736993 -0.25299281
-0.17309862 0.88815576 -0.25210497
-0.16698807 0.88688415 -0.2521821
-0.16357251 0.88896149 -0.25373933
-0.15738145 0.88708383 -0.25277209
-0.15251021 0.88682467 -0.25285816
-0.14844429 0.88728648 -0.25429589
-0.14229837 0.8867895 -0.25278994
-0.13830027 0.88779992 -0.2537972
-0.13334779 0.88796878 -0.25373602
-0.12702349 0.88709456 -0.2523703
-0.12275068 0.88740534 -0.25358284
-0.1183102 0.88757735 -0.25373998
-0.11190167 0.88706321 -0.25262478
-0.10803499 0.88831753 -0.25407559
-0.10243114 0.88705224 -0.25397053
-0.096968152 0.88673985 -0.25318694
-0.091769218 0.88737106 -0.25378761
-0.088457726 0.88719112 -0.25302625
-0.082653835 0.88639438 -0.25294596
-0.079129964 0.8874442 -0.25487417
-0.072488956 0.88846135 -0.25418898
-0.066321194 0.88751984 -0.25410989
-0.062189281 0.88717288 -0.25359774
-0.058784183 0.88833797 -0.25424582
-0.052245688 0.88733673 -0.25449517
-0.045666937 0.88623565 -0.25482714
-0.031346481 0.88849628 -0.25425476
-0.026748665 0.88699549 -0.25380614
-0.023573557 0.88849747 -0.25449914
-0.010678975 0.88745773 -0.25478214
-0.0051041357 0.88575625 -0.25460917
-0.0038618532 0.88835859 -0.25429726
0.0022490132 0.88758868 -0.25408596
0.0086190766 0.88766861 -0.25365505
0.013564108 0.88680011 -0.25255552
0.016650598 0.88870627 -0.2537598
0.020842776 0.88639665 -0.25447786
0.034298852 0.88669437 -0.25412259
0.037940454 0.88695449 -0.25347397
0.041828424 0.88746262 -0.25427747
0.047985919 0.88880241 -0.25441945
0.054136887 0.88801146 -0.25425115
0.057064027 0.88863963 -0.25408325
0.063504502 0.88681531 -0.25377232
0.066355526 0.88734508 -0.25476491
0.072613649 0.88790959 -0.25399959
0.077905536 0.88842231 -0.2533606
0.082078934 0.88684541 -0.25167158
0.087258078 0.88746405 -0.25221705
0.092086658 0.88765496 -0.25324783
0.097388722 0.88794094 -0.25372514
0.10160583 0.88637853 -0.25465488
0.10754658 0.88740778 -0.25300625
0.11243106 0.88669109 -0.25383022
0.11766003 0.88704956 -0.25413328
0.12073505 0.88652164 -0.25480482
0.13146344 0.88792199 -0.25445712
0.13815035 0.88797331 -0.25429544
0.14300175 0.88681185 -0.25464714
0.14755307 0.88696444 -0.2540952
0.15299365 0.88745666 -0.25408754
0.15788008 0.88656986 -0.25295019
0.1622618 0.88731235 -0.25415447
0.1670697 0.88726151 -0.25301427
0.17094472 0.88753861 -0.25469932
0.19217692 0.88733464 -0.2539584
0.30253404 0.88794249 -0.25490546
0.30895421 0.88542116 -0.25444478
0.31098077 0.8858577 -0.25332865
0.31735751 0.88940233 -0.25475034
0.32245219 0.88807642 -0.25385314
0.33988836 0.88882631 -0.25459018
0.34425843 0.88654494 -0.25472176
-0.46974021 0.89321524 -0.25405961
-0.46207488 0.89386868 -0.25461003
-0.45739573 0.89226788 -0.25408787
-0.45260987 0.89055645 -0.25361192
-0.44774708 0.89275014 -0.25293007
-0.44287476 0.8937965 -0.25200057
-0.43808365 0.89391321 -0.25074717
-0.43251079 0.89143437 -0.25057602
-0.42686385 0.89233297 -0.25070572
-0.42235881 0.8913846 -0.25073242
-0.41688505 0.89375174 -0.2520971
-0.4123129 0.89324075 -0.25073868
-0.40786266 0.89119065 -0.25067604
-0.40226489 0.89355415 -0.25204077
-0.39669636 0.8930971 -0.25397116
-0.39296886 0.89234489 -0.25241974
-0.3875224 0.89287066 -0.25356019
-0.38193169 0.89303261 -0.25395954
-0.3776527 0.89160246 -0.2534554
-0.37435138 0.89153504 -0.2535792
-0.36890432 0.89260852 -0.2546441
-0.35261998 0.89383072 -0.25087079
-0.34721893 0.89311063 -0.25218707
-0.34237111 0.8916319 -0.25360405
-0.33794031 0.89075494 -0.25360525
-0.33225906 0.89396375 -0.25422791
-0.32881415 0.89285058 -0.2537919
-0.31731424 0.89317435 -0.25446934
-0.31236511 0.89072651 -0.25451133
-0.30549654 0.89366281 -0.2548961
-0.29842976 0.89207101 -0.2525112
-0.29217511 0.8936283 -0.25308618
-0.28807262 0.89231122 -0.25463554
-0.27800786 0.89435452 -0.25450549
-0.26517028 0.8927719 -0.25005728
-0.26214784 0.893475 -0.2536698
-0.25778133 0.89223349 -0.2537832
-0.25338152 0.89197141 -0.25223899
-0.24597839 0.8925454 -0.25044402
-0.24449269 0.89481986 -0.25049317
-0.23056142 0.89153236 -0.25094771
-0.22839804 0.8926428 -0.25212854
-0.22148535 0.89263493 -0.25237218
-0.21793903 0.89200139 -0.2547276
-0.21363005 0.89144593 -0.25205338
-0.20696203 0.89341223 -0.25474826
-0.2027649 0.89245433 -0.25390327
-0.19726542 0.89205539 -0.25211453
-0.19272368 0.89408517 -0.25354984
-0.18734209 0.89113915 -0.25335521
-0.18263093 0.89262891 -0.25427252
-0.17768754 0.89301431 -0.25338897
-0.17280723 0.89174455 -0.25240037
-0.16782178 0.89323306 -0.25298297
-0.16189153 0.89252299 -0.25329703
-0.15522091 0.89022797 -0.25292581
-0.15223745 0.89134598 -0.2547625
-0.14640297 0.89089108 -0.25403786
-0.14306222 0.8927027 -0.25362134
-0.13805933 0.89251578 -0.25316983
-0.1320796 0.89279389 -0.25242937
-0.12748355 0.89235467 -0.25394559
-0.12216078 0.8929106 -0.25355315
-0.11735758 0.8924619 -0.25297737
-0.11334317 0.8924033 -0.25361812
-0.10707763 0.89324158 -0.25369892
-0.10221315 0.89274222 -0.25334167
-0.0985393 0.89245588 -0.25356558
-0.092889316 0.89274651 -0.25379252
-0.086820088 0.89159822 -0.25394109
-0.084223926 0.8940776 -0.25432768
-0.076994985 0.89203978 -0.25427595
-0.073394887 0.89334482 -0.25467616
-0.068241954 0.89250302 -0.25399318
-0.063180223 0.89215922 -0.25429893
-0.056896899 0.89259386 -0.25362808
-0.052430298 0.89254057 -0.25379267
-0.048413947 0.89346623 -0.25448906
-0.041560493 0.8927424 -0.25469458
-0.03217354 0.89224511 -0.25375602
-0.028628185 0.89289474 -0.25389567
-0.021596123 0.89333194 -0.25407004
-0.0076082633 0.89363509 -0.25413972
-0.0015349649 0.89293641 -0.25386241
0.0029193365 0.89217484 -0.25396878
0.0065960754 0.89310932 -0.25480115
0.012325557 0.89243585 -0.25423458
0.018045282 0.8914783 -0.25380316
0.022692729 0.89218682 -0.25442722
0.025721123 0.89398551 -0.25457829
0.033527128 0.89494884 -0.25485748
0.036457725 0.89041919 -0.25398239
0.044181421 0.89135158 -0.25421077
0.047319107 0.8928377 -0.2542133
0.050508644 0.8924737 -0.25459895
0.056822475 0.89105439 -0.25487825
0.063378207 0.89176148 -0.2542806
0.068682171 0.89266217 -0.25395739
0.073273487 0.89287335 -0.25300243
0.077332698 0.89285642 -0.25323501
0.082336545 0.89282703 -0.25279418
0.087495476 0.89276749 -0.25312003
0.092927761 0.89297366 -0.25400198
0.099190257 0.89027691 -0.25488371
0.10340749 0.89249241 -0.2537756
0.10721376 0.89239866 -0.25319138
0.11178277 0.89302254 -0.25397873
0.11686927 0.89182115 -0.25453979
0.1227475 0.89234406 -0.25348988
0.1279244 0.89238942 -0.25462341
0.13279673 0.89314795 -0.25402451
0.13630489 0.89393866 -0.25453228
0.14164591 0.89267379 -0.25410259
0.14688408 0.89307088 -0.25424042
0.15156685 0.89202875 -0.25422075
0.15626514 0.89262789 -0.25411361
0.16240473 0.89177591 -0.25396681
0.16784085 0.89151061 -0.25433737
0.17391545 0.89279622 -0.25443992
0.17503077 0.89406002 -0.25470036
0.18930653 0.89046526 -0.25420815
0.19303967 0.89226514 -0.25378659
0.19624285 0.89355898 -0.25409287
0.29820234 0.89020377 -0.25477505
0.31344137 0.89205104 -0.25415635
0.31631166 0.89183772 -0.25323051
0.32904133 0.89365125 -0.25492337
-0.47859618 0.89715451 -0.25433162
-0.471468 0.8987723 -0.25432718
-0.46907979 0.89829719 -0.25379133
-0.46167681 0.89791954 -0.2539252
-0.45696133 0.89867324 -0.25385982
-0.452084 0.89726299 -0.25344414
-0.44720069 0.89703751 -0.25176075
-0.4435758 0.89632785 -0.25124499
-0.4379065 0.898996 -0.2508969
-0.43168411 0.89693892 -0.25071883
-0.42824215 0.8980087 -0.25106055
-0.42317757 0.89756191 -0.25149378
-0.41752037 0.89725631 -0.25194088
-0.4120487 0.89811599 -0.25213131
-0.40744361 0.89614189 -0.25193143
-0.40254286 0.89778048 -0.25162047
-0.39775118 0.89704466 -0.25417054
-0.39241984 0.89843577 -0.25370058
-0.38808161 0.89742094 -0.25273004
-0.38178599 0.89701992 -0.25253502
-0.37751779 0.89766771 -0.2539416
-0.35805631 0.89913249 -0.25467244
-0.35193717 0.89665627 -0.25247961
-0.34958005 0.89710277 -0.25270295
-0.34157753 0.89834464 -0.2533997
-0.33785325 0.89723933 -0.25377956
-0.3320241 0.89721036 -0.25335258
-0.32845843 0.89798236 -0.25341052
-0.32367465 0.89629096 -0.25443837
-0.30566216 0.89590347 -0.25037497
-0.30350921 0.89834285 -0.25087768
-0.29669106 0.89571083 -0.25079498
-0.28657785 0.89838827 -0.25389546
-0.28310546 0.89691263 -0.25443316
-0.27538544 0.8998307 -0.25450775
-0.27237555 0.89889288 -0.2540994
-0.26767379 0.89636815 -0.25429642
-0.26209015 0.89692223 -0.25258088
-0.25811937 0.89815962 -0.25343937
-0.25199863 0.89636678 -0.25223339
-0.24873447 0.89856023 -0.25208998
-0.24187918 0.89778101 -0.25110343
-0.23608325 0.89709771 -0.25059515
-0.23460244 0.89936465 -0.25064415
-0.2272445 0.89721048 -0.25075489
-0.22029702 0.89548337 -0.2503202
-0.21780583 0.89826792 -0.25279617
-0.21186322 0.89641684 -0.25424936
-0.20866977 0.89514846 -0.25403139
-0.20231865 0.8983919 -0.25437126
-0.19747727 0.8969202 -0.25368541
-0.19245701 0.89720887 -0.25218916
-0.18789579 0.89839846 -0.25409636
-0.18226431 0.89676732 -0.25413078
-0.17644127 0.89863926 -0.25352502
-0.17347772 0.89853179 -0.25310242
-0.16668665 0.89740062 -0.25249699
-0.16304061 0.89810449 -0.25384977
-0.15747103 0.8979578 -0.25411454
-0.14766148 0.89879334 -0.25469106
-0.1421963 0.89727193 -0.25444055
-0.13638681 0.89665568 -0.25242919
-0.13288864 0.89796174 -0.2515212
-0.12789991 0.89782965 -0.25314981
-0.12135933 0.89700186 -0.25193465
-0.11826332 0.89845657 -0.25371712
-0.11197315 0.89722252 -0.25416014
-0.10720909 0.89728886 -0.25294968
-0.10296237 0.89792162 -0.25392199
-0.097233921 0.89730716 -0.2534804
-0.093625702 0.89780295 -0.2545386
-0.089840263 0.89522845 -0.25474483
-0.08217755 0.89795101 -0.25402209
-0.072995648 0.89918321 -0.25389376
-0.067406937 0.89674997 -0.25410071
-0.061755441 0.89695758 -0.25394648
-0.056852534 0.89757419 -0.25252441
-0.053520598 0.89823747 -0.25367337
-0.04678547 0.89745677 -0.25378835
-0.037440456 0.89983183 -0.254594
-0.032398809 0.89778829 -0.25416452
-0.0269909 0.89710712 -0.25334293
-0.022392217 0.89754677 -0.25406331
-0.018505525 0.89669895 -0.25445962
-0.010663397 0.89973724 -0.25412217
-0.0061331983 0.89740491 -0.25342673
-0.0021356773 0.89836329 -0.25340211
0.00078810111 0.89703208 -0.25366744
0.009068979 0.89799416 -0.25432909
0.012873463 0.89537114 -0.25319624
0.017047424 0.89788848 -0.25418255
0.022203799 0.89757341 -0.2540772
0.02740062 0.89691913 -0.25445113
0.032635394 0.89599198 -0.25361446
0.04748236 0.89805597 -0.25348788
0.053066652 0.89726871 -0.25424054
0.059336118 0.89727634 -0.2537652
0.060717851 0.89749241 -0.25476786
0.068248525 0.89737976 -0.25377673
0.071797572 0.89809144 -0.25336012
0.078040138 0.89755201 -0.2535063
0.082745597 0.89690608 -0.25348067
0.086484618 0.89651048 -0.25255162
0.092296883 0.89841533 -0.25419936
0.095666617 0.89582908 -0.25476643
0.10275752 0.89590842 -0.25432482
0.10846299 0.89841574 -0.25410575
0.11341268 0.89617729 -0.25370026
0.11800577 0.89762336 -0.25412124
0.12254149 0.89792114 -0.25402355
0.12725297 0.89788979 -0.25294107
0.13158081 0.89754885 -0.25383702
0.13771959 0.8985315 -0.25414389
0.14323162 0.89688754 -0.25389123
0.14816423 0.89669913 -0.25381798
0.15287343 0.89744294 -0.25309527
0.15792948 0.89777809 -0.25393629
0.16078915 0.89983869 -0.25411949
0.1651108 0.89555573 -0.25423908
0.17296074 0.89687246 -0.25423473
0.176488 0.89725888 -0.25426078
0.1931944 0.89698821 -0.25283232
0.19768013 0.89776015 -0.25313216
0.20217739 0.89815998 -0.25489402
0.26929635 0.89563555 -0.25486854
0.32030126 0.89821386 -0.25466022
-0.47587702 0.90038812 -0.25473469
-0.47328913 0.9000659 -0.25400224
-0.46699035 0.90358156 -0.25414777
-0.46277913 0.90264452 -0.25349072
-0.45715094 0.90345925 -0.2537773
-0.45260635 0.90283448 -0.25324073
-0.448102 0.90215999 -0.25205535
-0.44327396 0.90189224 -0.25085068
-0.43664441 0.90276653 -0.25140867
-0.43211892 0.90217364 -0.2512688
-0.4273693 0.90188545 -0.2510145
-0.42254266 0.9036206 -0.25186312
-0.41741979 0.90243179 -0.25143543
-0.41221529 0.90292889 -0.25159276
-0.40797466 0.90165681 -0.25177598
-0.40316781 0.90171641 -0.25122601
-0.3971599 0.90143865 -0.25294879
-0.3931174 0.9015066 -0.25287622
-0.38729626 0.90271205 -0.25369462
-0.38239452 0.90070575 -0.25340697
-0.37768763 0.90384442 -0.25445604
-0.3682462 0.90480596 -0.25408682
-0.35258347 0.90386319 -0.25417563
-0.34759265 0.90226096 -0.2528514
-0.34248382 0.90196121 -0.25364003
-0.33740962 0.9033035 -0.25414887
-0.33250332 0.90151107 -0.25369099
-0.32799453 0.90176362 -0.25310254
-0.31955892 0.90455461 -0.25000277
-0.3108786 0.90149492 -0.25163364
-0.30844975 0.9036355 -0.25250894
-0.30116707 0.90221375 -0.25081131
-0.29299343 0.9014563 -0.25462243
-0.28748301 0.90002215 -0.25365204
-0.28259632 0.90364909 -0.25384241
-0.27756909 0.90160418 -0.25394303
-0.27369922 0.90112227 -0.25284773
-0.26710644 0.90306389 -0.25330514
-0.26242766 0.90102804 -0.25394148
-0.25737756 0.90260619 -0.25196323
-0.25488609 0.90289986 -0.25490826
-0.24725014 0.90250283 -0.25129747
-0.24304688 0.90270448 -0.25113016
-0.23919968 0.90284336 -0.25070816
-0.23251854 0.90172583 -0.25113076
-0.22769757 0.90361232 -0.25461581
-0.22344701 0.90234685 -0.25223932
-0.2159109 0.90373707 -0.25188854
-0.21234676 0.90359342 -0.25309286
-0.20778714 0.90113497 -0.2542946
-0.20199269 0.90100271 -0.25254631
-0.19696611 0.90291309 -0.25315446
-0.19355446 0.90157932 -0.25438857
-0.18656297 0.90276688 -0.25378555
-0.18215214 0.90257508 -0.25391269
-0.17847644 0.90249324 -0.2542285
-0.17172338 0.90279728 -0.25322455
-0.16817205 0.90294361 -0.2528176
-0.16272314 0.90273893 -0.25299549
-0.15619685 0.90167367 -0.25326714
-0.15427546 0.90328276 -0.25400206
-0.14215484 0.90295553 -0.25413698
-0.13803625 0.90233582 -0.2533333
-0.13294943 0.90279537 -0.25210071
-0.12724781 0.90269864 -0.25291792
-0.1239717 0.90269387 -0.25385883
-0.11603073 0.90171385 -0.253847
-0.11353683 0.90330869 -0.2542246
-0.10785971 0.90255564 -0.25416821
-0.10205083 0.90195018 -0.25299346
-0.096859604 0.90323466 -0.25350106
-0.092664845 0.90303868 -0.25408542
-0.086208135 0.90190375 -0.25430313
-0.084324375 0.90367246 -0.25492728
-0.078841843 0.90304929 -0.25413656
-0.071060523 0.90263349 -0.25371194
-0.069469839 0.90274286 -0.25493643
-0.062895209 0.90242845 -0.25329307
-0.05786426 0.9025681 -0.25333044
-0.05219141 0.90234423 -0.25249174
-0.048087731 0.90328342 -0.25405475
-0.043321054 0.90224028 -0.25416493
-0.036097068 0.90188837 -0.25463843
-0.030851683 0.90195489 -0.25330952
-0.026987135 0.90266144 -0.25238553
-0.022864057 0.90284401 -0.25377196
-0.017044345 0.90322614 -0.25401342
-0.011614167 0.90266126 -0.2526589
-0.0074290801 0.901847 -0.25244379
-0.0035139732 0.90187168 -0.25328302
0.0054074936 0.90184802 -0.25495681
0.017987419 0.90258044 -0.25367755
0.022936648 0.90255511 -0.25325954
0.027631616 0.90260041 -0.25425607
0.030903315 0.90191865 -0.25474972
0.047927804 0.90261489 -0.25351876
0.052516807 0.90184373 -0.25333133
0.056626741 0.90352821 -0.25395042
0.063817486 0.90302885 -0.25447166
0.068615936 0.90218735 -0.25324056
0.073247761 0.90251952 -0.25412297
0.076488189 0.90318328 -0.25414762
0.081354916 0.90178198 -0.25369674
0.09353558 0.90209556 -0.25403085
0.098024793 0.90324402 -0.25447834
0.10290725 0.90162373 -0.25399461
0.10699495 0.90282631 -0.25424778
0.11116685 0.90193892 -0.25450552
0.11763508 0.9025104 -0.2539058
0.12326472 0.9030261 -0.25403854
0.12811255 0.90169948 -0.25309175
0.13331743 0.90254718 -0.25354266
0.13766181 0.90325874 -0.25352496
0.14211839 0.90268672 -0.25338271
0.14733408 0.90223384 -0.25286818
0.15233643 0.90292358 -0.25265911
0.15727285 0.90251726 -0.25245887
0.16108613 0.90208626 -0.25322586
0.17359148 0.90213716 -0.25419977
0.17776954 0.90188521 -0.25446466
0.18008 0.90356421 -0.25397313
0.19323608 0.90251058 -0.2533679
0.19774093 0.90238094 -0.2530193
0.2021521 0.90304273 -0.25406781
0.20610613 0.90072727 -0.25427914
0.2362991 0.90324318 -0.25480726
-0.46813792 0.90802729 -0.25414953
-0.46291426 0.90714139 -0.25377649
-0.45608217 0.90797549 -0.25450221
-0.4529452 0.90789938 -0.25376719
-0.44818056 0.90789592 -0.25317758
-0.4428803 0.90721321 -0.25185174
-0.43774918 0.90783387 -0.25253248
-0.43241102 0.90738493 -0.25171679
-0.42814392 0.90645105 -0.25169969
-0.42317212 0.90781999 -0.25102371
-0.4173317 0.90721345 -0.25096491
-0.41264421 0.90605575 -0.2508499
-0.40675184 0.90854466 -0.25119966
-0.40227592 0.90684181 -0.25177327
-0.39727366 0.9067151 -0.25434381
-0.39370298 0.9059059 -0.25362042
-0.38638535 0.90785551 -0.25461116
-0.38257453 0.90698254 -0.25296783
-0.37750888 0.90757513 -0.25426319
-0.37222376 0.90688246 -0.25396708
-0.36248323 0.90799075 -0.2546972
-0.35677084 0.90622681 -0.25390965
-0.35257259 0.90714699 -0.25335655
-0.34641334 0.90717143 -0.25412101
-0.34253767 0.9060362 -0.25395069
-0.33833256 0.90703279 -0.25368914
-0.33272409 0.90744698 -0.25441471
-0.32886204 0.9060753 -0.2540234
-0.3158249 0.90796691 -0.25128719
-0.31321931 0.90780884 -0.25346303
-0.30636188 0.9078356 -0.25207213
-0.30366752 0.90966558 -0.25331753
-0.298825 0.90608466 -0.25074491
-0.29235363 0.90837848 -0.25424123
-0.28774622 0.90719962 -0.2532351
-0.28203291 0.90786594 -0.25311941
-0.27831429 0.90821588 -0.25336835
-0.27283892 0.90672183 -0.25341696
-0.26558366 0.90681469 -0.25219437
-0.26280424 0.9076134 -0.25242174
-0.25636038 0.90513963 -0.25091252
-0.25304955 0.90800625 -0.25251797
-0.24578696 0.90585613 -0.25078475
-0.24364026 0.90794951 -0.25145692
-0.23582044 0.90842837 -0.25061235
-0.23165336 0.9061923 -0.25259382
-0.22684656 0.90890372 -0.25317129
-0.2216897 0.90780836 -0.25279081
-0.21847557 0.90767395 -0.25336933
-0.21162251 0.90770882 -0.25153753
-0.20807044 0.9078021 -0.25446588
-0.20199075 0.90782213 -0.25226694
-0.1974639 0.90622801 -0.25211436
-0.1927035 0.90753233 -0.25290376
-0.18578967 0.90705174 -0.25181744
-0.18244751 0.90812671 -0.25386944
-0.17722356 0.90712309 -0.25330597
-0.17293653 0.90683711 -0.25291094
-0.1680554 0.90808964 -0.25290364
-0.16170833 0.90716082 -0.25158376
-0.15874323 0.90784949 -0.253622
-0.15235256 0.90693164 -0.25371021
-0.14297691 0.90777773 -0.25393242
-0.13819301 0.907296 -0.25250846
-0.13189845 0.90774238 -0.25233364
-0.12781878 0.90803629 -0.25326279
-0.12191717 0.90726316 -0.2536183
-0.11820706 0.90777469 -0.25465646
-0.11156726 0.90772575 -0.25440827
-0.10581299 0.90807945 -0.2544778
-0.102789 0.90764374 -0.25434786
-0.097639248 0.90684974 -0.25372884
-0.091081284 0.90762258 -0.25373128
-0.08907491 0.90783286 -0.25386217
-0.082485318 0.90822458 -0.2541129
-0.076707348 0.90755004 -0.25358576
-0.07414075 0.90900064 -0.25491953
-0.067478806 0.90790099 -0.25393903
-0.061598673 0.90720391 -0.25350556
-0.058721911 0.90776312 -0.25415921
-0.0519136 0.90610188 -0.25137326
-0.04788512 0.90774828 -0.25323293
-0.041141506 0.90722293 -0.25340754
-0.038440678 0.90905726 -0.25465596
-0.033388641 0.90732372 -0.25407839
-0.027568568 0.90794671 -0.25293148
-0.021206219 0.90721118 -0.25315851
-0.017082592 0.90705538 -0.25240794
-0.01277866 0.90794492 -0.25332832
-0.0074225282 0.90666056 -0.25381815
0.001639178 0.90902197 -0.25382549
0.0090024695 0.90843022 -0.25453213
0.014232572 0.90644848 -0.2542229
0.015785581 0.90852052 -0.25442812
0.022138782 0.9074257 -0.25457561
0.027882436 0.90753418 -0.25362626
0.033846576 0.90757263 -0.25426844
0.036085531 0.90985191 -0.25492114
0.041672729 0.90828556 -0.25469002
0.04743867 0.90770137 -0.25300473
0.052472942 0.90740901 -0.25278974
0.05780711 0.9072668 -0.25353318
0.060915314 0.90954864 -0.25436673
0.065964103 0.90647328 -0.2544629
0.073172994 0.90821105 -0.25387126
0.077281907 0.9070977 -0.25360149
0.086730957 0.90876961 -0.25484523
0.091155909 0.90903169 -0.25413644
0.097520933 0.90793735 -0.25429326
0.10313254 0.90825516 -0.25451112
0.10834174 0.90706646 -0.25378549
0.11303817 0.90739691 -0.2542949
0.11799201 0.9074859 -0.25247371
0.12193487 0.90761369 -0.25375929
0.12590288 0.90691191 -0.25420284
0.13211621 0.90612763 -0.25408119
0.13760069 0.90783817 -0.25349498
0.14215523 0.90736657 -0.25270864
0.14770453 0.90790486 -0.25193799
0.1530624 0.9071936 -0.25298735
0.15725069 0.90760261 -0.25386089
0.16146575 0.90895861 -0.25420475
0.17213997 0.90542358 -0.25492144
0.17806424 0.90840715 -0.25404757
0.1891678 0.90940255 -0.25420564
0.19430768 0.90889943 -0.25445762
0.19895165 0.90663558 -0.25381914
0.20182821 0.90687686 -0.25282979
0.31475338 0.9092074 -0.25475881
0.31914085 0.90691704 -0.25489092
-0.47142789 0.91058844 -0.25430581
-0.46819687 0.91191882 -0.25415263
-0.46206704 0.9126659 -0.25404376
-0.45785064 0.9103542 -0.25463131
-0.45166096 0.91266406 -0.2525495
-0.44776446 0.91332155 -0.25289106
-0.44250175 0.91265869 -0.25202328
-0.43777248 0.91220731 -0.25133634
-0.43171507 0.91198671 -0.25134945
-0.42845449 0.91236907 -0.25114283
-0.42375916 0.91116416 -0.25030255
-0.41761374 0.91474032 -0.25045878
-0.41257173 0.91193312 -0.25074854
-0.40771022 0.91244209 -0.25091091
-0.40280178 0.91232604 -0.25203085
-0.39965391 0.91389972 -0.25490671
-0.39184302 0.91363639 -0.25452933
-0.38726297 0.91402555 -0.25407186
-0.38308966 0.91232711 -0.25350055
-0.37743199 0.91252524 -0.25390044
-0.37222096 0.91349292 -0.25407416
-0.36807266 0.91121316 -0.254289
-0.36236739 0.91312611 -0.25459421
-0.35872671 0.91326469 -0.25442636
-0.35252446 0.91002691 -0.2546131
-0.3424629 0.91162771 -0.25259876
-0.33172441 0.914141 -0.25407591
-0.32817048 0.91270483 -0.25385278
-0.32113463 0.91264117 -0.25155437
-0.31994852 0.9146015 -0.25152075
-0.31218579 0.91260195 -0.25187919
-0.30746531 0.91285598 -0.25233793
-0.30355299 0.91285288 -0.25180364
-0.29629374 0.91138697 -0.2501094
-0.29474533 0.91256195 -0.25103205
-0.28749251 0.91294777 -0.25304729
-0.28431296 0.91281837 -0.25267243
-0.27706873 0.91234356 -0.25166112
-0.271207 0.91098231 -0.25476155
-0.26898801 0.91251487 -0.25082573
-0.26143709 0.91226721 -0.25136083
-0.25838158 0.91249233 -0.25292781
-0.25189239 0.91238397 -0.25122562
-0.24944948 0.91393918 -0.25477105
-0.24261883 0.91181958 -0.25032845
-0.23981959 0.91499126 -0.25098214
-0.23260315 0.91317135 -0.25249317
-0.227432 0.91191 -0.25211412
-0.22338927 0.91434109 -0.25267351
-0.21719722 0.9121747 -0.25181502
-0.21343641 0.91194278 -0.25202632
-0.2083825 0.91261953 -0.2516031
-0.20139189 0.91182899 -0.25142717
-0.19890569 0.91345769 -0.25157762
-0.19143988 0.9123764 -0.25167638
-0.18796283 0.91190815 -0.25354701
-0.18287702 0.9116677 -0.25201532
-0.17624712 0.91311961 -0.25215471
-0.17287087 0.91259658 -0.25362539
-0.16634959 0.91165304 -0.25248033
-0.16173717 0.91312432 -0.25251997
-0.15721074 0.91209394 -0.25271603
-0.15422861 0.91433287 -0.2539869
-0.14814004 0.91307491 -0.25400358
-0.14142989 0.91218895 -0.25295413
-0.13818674 0.91258508 -0.25370899
-0.13349642 0.91296452 -0.25343052
-0.12691806 0.91209877 -0.25226483
-0.12321343 0.91255426 -0.25391242
-0.11708806 0.91325009 -0.25386816
-0.11195756 0.91210717 -0.25431019
-0.10844734 0.91243327 -0.2539373
-0.1023521 0.91337073 -0.25410569
-0.097420894 0.91236401 -0.25388291
-0.092676289 0.91219753 -0.25220603
-0.086514309 0.91264468 -0.25466493
-0.082492977 0.91240907 -0.25444305
-0.077227421 0.91233313 -0.25351486
-0.072976165 0.91334748 -0.2536661
-0.066462889 0.91104722 -0.25317088
-0.063802034 0.91301793 -0.25362903
-0.057071049 0.9127987 -0.25432864
-0.051226448 0.9114629 -0.25340042
-0.046845809 0.9128136 -0.2521655
-0.04404892 0.91203165 -0.25416064
-0.037843872 0.91246402 -0.25341946
-0.031264983 0.91225517 -0.25330192
-0.028583806 0.91414213 -0.25450796
-0.023188084 0.91282284 -0.25431052
-0.017119652 0.91263497 -0.25339937
-0.012160339 0.91176534 -0.25281939
-0.0081552174 0.91274214 -0.25447845
-0.0013151873 0.91454196 -0.2541824
0.0037412052 0.91219062 -0.25391981
0.0075312578 0.91278154 -0.25351962
0.011150657 0.91358209 -0.25366426
0.018313229 0.91263425 -0.25438863
0.023242582 0.91137373 -0.25426215
0.027096383 0.91263646 -0.25409976
0.031803224 0.91324013 -0.25390527
0.036405869 0.91227621 -0.25395718
0.044171408 0.91317022 -0.25423869
0.048277341 0.91277301 -0.25253323
0.052672606 0.91168112 -0.25245225
0.05689539 0.91314483 -0.2534571
0.062425468 0.91281366 -0.25393632
0.069224738 0.91117996 -0.25471428
0.072715767 0.91232222 -0.25327027
0.076260448 0.91274351 -0.25407115
0.083313741 0.9146024 -0.25467232
0.088222295 0.91292435 -0.2539514
0.093205072 0.91222715 -0.25417471
0.09872169 0.91115445 -0.25363812
0.10168267 0.9127816 -0.2539275
0.10632482 0.91413879 -0.25411439
0.11270446 0.91195345 -0.25387812
0.11731875 0.91219437 -0.25203061
0.12234679 0.91257817 -0.25262314
0.12778492 0.91249156 -0.25349626
0.13317849 0.91220689 -0.2537109
0.13772744 0.91270787 -0.25339937
0.1428635 0.91229373 -0.25191122
0.14752363 0.9127841 -0.25234216
0.15157793 0.91178077 -0.2531009
0.15681756 0.91111875 -0.25351334
0.16341154 0.91208696 -0.25478464
0.17497598 0.91244352 -0.2536656
0.17708328 0.9125182 -0.25428912
0.18092752 0.91207838 -0.25450107
0.18651427 0.91350287 -0.25414121
0.19139621 0.91250765 -0.25443366
0.19604334 0.911336 -0.25462615
0.20040455 0.9105283 -0.25302646
-0.47680604 0.91990298 -0.25433359
-0.47276956 0.91814238 -0.2541821
-0.46966493 0.91716534 -0.25376856
-0.46211085 0.9191131 -0.25467056
-0.45655486 0.91741902 -0.25340968
-0.45267999 0.9168722 -0.2540772
-0.4478277 0.91809803 -0.25268561
-0.44275561 0.91863471 -0.251679
-0.43734747 0.91723514 -0.25066325
-0.4327969 0.91518438 -0.25058013
-0.42804226 0.9185428 -0.25097701
-0.42270181 0.9171896 -0.25091153
-0.41673264 0.9189831 -0.25209612
-0.41293913 0.91763562 -0.25171182
-0.40788019 0.91773987 -0.25163451
-0.40207636 0.91810554 -0.25251693
-0.3977989 0.91731024 -0.25390512
-0.39270923 0.91706169 -0.25375581
-0.38791376 0.9160642 -0.25271401
-0.38252383 0.91858625 -0.25398856
-0.37806517 0.91694903 -0.25217247
-0.37292534 0.91996366 -0.25456068
-0.36548269 0.91607833 -0.25478476
-0.36249232 0.91570604 -0.25393844
-0.35837752 0.91955036 -0.25465736
-0.35272121 0.9173612 -0.25422615
-0.34221333 0.91817927 -0.25489223
-0.33762723 0.91686308 -0.25418124
-0.33460012 0.91584748 -0.25382763
-0.32752264 0.91918945 -0.25318623
-0.32101911 0.91585386 -0.25002843
-0.31841797 0.9176805 -0.25120053
-0.31121349 0.91646641 -0.25071412
-0.30858466 0.91772598 -0.25219423
-0.30143341 0.91729259 -0.25127152
-0.29536271 0.91567814 -0.25495312
-0.29253048 0.91546953 -0.25373966
-0.28624368 0.91890496 -0.25425136
-0.28266469 0.91778392 -0.2517806
-0.27596718 0.91611814 -0.2502895
-0.2739253 0.91782808 -0.2510705
-0.26643771 0.91660708 -0.25081533
-0.26295036 0.91904706 -0.25264096
-0.25691569 0.91838533 -0.25280762
-0.25233665 0.91651505 -0.25384235
-0.24816485 0.91734415 -0.25184736
-0.2428671 0.91748172 -0.25478712
-0.2372555 0.91782022 -0.25189692
-0.23163183 0.9178949 -0.25237906
-0.22824594 0.91788453 -0.25236902
-0.2220929 0.91740966 -0.25161484
-0.21766035 0.91755605 -0.25280893
-0.21255356 0.91780257 -0.252197
-0.20686096 0.91627264 -0.25180236
-0.20379108 0.9174211 -0.25254434
-0.19695564 0.9171797 -0.25127089
-0.19188352 0.91775507 -0.25092492
-0.18765445 0.91836011 -0.25237504
-0.18202381 0.91747791 -0.25260243
-0.17825583 0.91721845 -0.25285441
-0.17189083 0.91718876 -0.25245196
-0.16780666 0.91719782 -0.25282285
-0.16265914 0.9176932 -0.25240558
-0.15624094 0.91640556 -0.25132361
-0.15304387 0.91783541 -0.25317511
-0.1466483 0.91713756 -0.25315645
-0.14486071 0.9184947 -0.25391063
-0.13721119 0.91710174 -0.25344813
-0.13182229 0.91738117 -0.25255162
-0.12786685 0.91888517 -0.25448892
-0.12265324 0.91742915 -0.25296891
-0.11754181 0.91621709 -0.25394234
-0.11319581 0.91812485 -0.2539466
-0.10735507 0.917247 -0.25384244
-0.10203396 0.9162342 -0.25259253
-0.09784136 0.91531664 -0.25171742
-0.092044435 0.918441 -0.25360766
-0.088145055 0.91792715 -0.25303113
-0.082182914 0.91893083 -0.25447649
-0.077084914 0.91742152 -0.25432235
-0.072299965 0.91755462 -0.25359422
-0.069277383 0.91815501 -0.25421908
-0.061779581 0.91689795 -0.25399032
