# .PCD v0.7 - Point Cloud Data file format
VERSION 0.7
FIELDS x y z
SIZE 4 4 4
TYPE F F F
COUNT 1 1 1
WIDTH 1375
HEIGHT 1
VIEWPOINT 0 0 0 1 0 0 0
POINTS 1375
DATA ascii
-0.28958887 0.79712546 -0.2441656
-0.28106362 0.79688513 -0.24425541
-0.27288732 0.79645354 -0.24416056
-0.26398277 0.7977097 -0.24380156
-0.25711271 0.79756218 -0.24389109
-0.24800436 0.79730904 -0.24445683
-0.54162061 0.80055261 -0.24428506
-0.53780651 0.80363435 -0.24417119
-0.53261739 0.80333811 -0.24257547
-0.52764165 0.802674 -0.24415372
-0.51624179 0.80287486 -0.24495657
-0.48553178 0.80432594 -0.2441278
-0.41786093 0.80345964 -0.24388576
-0.39112294 0.80134213 -0.24441545
-0.38967574 0.80298346 -0.24475364
-0.38257524 0.80250406 -0.24381658
-0.37191695 0.80134225 -0.24470919
-0.36301914 0.80357349 -0.24385342
-0.35658544 0.80121815 -0.24332482
-0.33009773 0.80012196 -0.24451742
-0.32869193 0.80171627 -0.24484593
-0.32088813 0.80245423 -0.24248256
-0.3185741 0.80281752 -0.2441628
-0.31023079 0.80143201 -0.24468324
-0.30186138 0.80432075 -0.24444973
-0.29557779 0.80239373 -0.24358442
-0.29337263 0.80395597 -0.24457285
-0.28687602 0.8023057 -0.24373959
-0.28389972 0.80474651 -0.24490625
-0.27791214 0.80162305 -0.24440546
-0.27058753 0.80005503 -0.24419746
-0.26831168 0.80263615 -0.24472933
-0.26154447 0.80179387 -0.24370684
-0.25801656 0.80189198 -0.24429141
-0.25428021 0.80301982 -0.24342155
-0.54140544 0.80605853 -0.2444286
-0.53750128 0.80694342 -0.24279046
-0.52348989 0.80934197 -0.24413657
-0.5117172 0.80618113 -0.244807
-0.49152759 0.80947208 -0.24498191
-0.48338377 0.80761725 -0.24419886
-0.42432445 0.80776691 -0.24478605
-0.41546977 0.80741531 -0.24381782
-0.41419697 0.80761516 -0.24474204
-0.38811442 0.80782449 -0.24357127
-0.37878203 0.80802941 -0.24408659
-0.37010497 0.80583209 -0.24390566
-0.36795318 0.80827248 -0.24440853
-0.36087596 0.80600417 -0.24435428
-0.32607281 0.80707258 -0.24425562
-0.32410476 0.80930471 -0.24471556
-0.3176001 0.80696607 -0.24285649
-0.31459844 0.80890936 -0.24429427
-0.30685803 0.80791724 -0.24413092
-0.30053499 0.80676776 -0.24428466
-0.2997604 0.80906022 -0.24375312
-0.29148778 0.80844063 -0.24383064
-0.28353739 0.8074944 -0.24381311
-0.25818598 0.80659193 -0.24399322
-0.1958106 0.8062548 -0.24473739
-0.54122436 0.81354272 -0.24429008
-0.5380742 0.81145513 -0.24171719
-0.52962917 0.81451291 -0.24486271
-0.52117532 0.8127135 -0.24430136
-0.49112806 0.8125025 -0.24377649
-0.48960957 0.81422466 -0.24413137
-0.48473635 0.81035906 -0.24172789
-0.45148268 0.81103766 -0.24471602
-0.42099208 0.81404555 -0.24430537
-0.41258574 0.81248266 -0.24358647
-0.40141234 0.81410432 -0.24487036
-0.39501309 0.8147341 -0.24143028
-0.39313945 0.81254381 -0.24404292
-0.38658568 0.81175125 -0.24282338
-0.38434413 0.81230521 -0.24434924
-0.37701997 0.81230736 -0.24334955
-0.36606562 0.81102192 -0.2445429
-0.31277168 0.81261337 -0.24389862
-0.30566663 0.81133723 -0.24336675
-0.30358306 0.81291223 -0.24425085
-0.29615024 0.81315464 -0.24459679
-0.28886053 0.8114202 -0.24444461
-0.28078339 0.81061792 -0.24445675
-0.27931577 0.81286657 -0.24450526
-0.26340073 0.81052351 -0.24470906
-0.22279237 0.81206626 -0.24490841
-0.54820842 0.81784916 -0.24477156
-0.54138792 0.81731087 -0.24225938
-0.53862238 0.81825089 -0.24401262
-0.52829474 0.81865042 -0.24385214
-0.52029002 0.81623662 -0.24323872
-0.51774973 0.81875616 -0.24403836
-0.51358342 0.81707847 -0.24490778
-0.50758237 0.81789726 -0.24435905
-0.49637967 0.81855124 -0.244775
-0.49072853 0.8155328 -0.24257106
-0.47757605 0.81591445 -0.24469413
-0.45673141 0.81578004 -0.24499589
-0.42613325 0.81879461 -0.24466844
-0.41853791 0.81682891 -0.24487892
-0.4087975 0.81705552 -0.24433248
-0.40102822 0.81701756 -0.2437115
-0.39956841 0.81867331 -0.24405268
-0.39183187 0.81636947 -0.24316791
-0.38958365 0.81842601 -0.24394184
-0.38187224 0.81719279 -0.24387668
-0.37631655 0.81510681 -0.24250522
-0.37309223 0.81631726 -0.24449162
-0.34383452 0.81990618 -0.24417466
-0.31003377 0.81646055 -0.24416456
-0.30793548 0.81884038 -0.24465492
-0.30135903 0.81779897 -0.24357904
-0.29974589 0.81805229 -0.24475041
-0.28365704 0.81966859 -0.24447794
-0.27697855 0.81727022 -0.24416815
-0.27491304 0.81961286 -0.24465087
-0.54779798 0.82096219 -0.24353325
-0.54248714 0.82299697 -0.24477437
-0.53725934 0.82265252 -0.24329031
-0.53382719 0.82456815 -0.24469048
-0.52695286 0.82270217 -0.24335301
-0.52458405 0.82285899 -0.24471931
-0.51708394 0.82203305 -0.24289931
-0.51498389 0.82421386 -0.24349138
-0.50637072 0.82239228 -0.24306946
-0.5043062 0.82421374 -0.24381408
-0.48465452 0.82242173 -0.24399053
-0.44512194 0.82078403 -0.24492633
-0.40683061 0.82094467 -0.24395645
-0.40463221 0.82343793 -0.24447021
-0.39740309 0.82225525 -0.24399114
-0.38687238 0.8219493 -0.24434951
-0.37878394 0.82024878 -0.24482343
-0.34241149 0.82152009 -0.24450724
-0.30616856 0.82321852 -0.24387136
-0.29798624 0.82241237 -0.24397008
-0.28227428 0.82123691 -0.24480109
-0.27365384 0.82250166 -0.24420901
-0.1909878 0.8247574 -0.24481374
-0.54585385 0.82844549 -0.24395192
-0.54281646 0.82708877 -0.24415655
-0.53689241 0.82636309 -0.24131748
-0.53354573 0.82781589 -0.24328034
-0.5253166 0.82727629 -0.24190329
-0.52344489 0.82775897 -0.24316722
-0.51624978 0.82702315 -0.2410562
-0.512667 0.82788658 -0.24350625
-0.50543535 0.82553375 -0.24223958
-0.5033384 0.82661164 -0.24338494
-0.41324216 0.82533419 -0.24485706
-0.40287742 0.82729375 -0.24394014
-0.39661044 0.82698333 -0.24224669
-0.39334491 0.82820922 -0.24425843
-0.34061405 0.82597387 -0.24371015
-0.33812374 0.82879823 -0.24429211
-0.33011553 0.82763463 -0.24443083
-0.32869825 0.82924211 -0.24476203
-0.30337083 0.82639158 -0.24452519
-0.29622659 0.82677257 -0.24318975
-0.29402688 0.82847911 -0.244101
-0.280734 0.82845974 -0.24240141
-0.27856275 0.82857537 -0.24409154
-0.27418843 0.82510877 -0.24246463
-0.24455282 0.82666963 -0.24485323
-0.18158661 0.82909948 -0.24467871
-0.5421024 0.83271688 -0.24219584
-0.53741181 0.83259755 -0.24272287
-0.53189284 0.83144772 -0.24278106
-0.52933168 0.83362031 -0.24374858
-0.5224337 0.83204544 -0.24182136
-0.51235116 0.83177137 -0.24180275
-0.50939417 0.83185977 -0.24413943
-0.43886596 0.83294392 -0.24383602
-0.40092981 0.8326118 -0.24282835
-0.39923277 0.83287829 -0.24406065
-0.39114752 0.83169252 -0.24427252
-0.34260291 0.83400339 -0.24495846
-0.33615777 0.83223557 -0.24414299
-0.29810673 0.83473605 -0.24455892
-0.29243487 0.83242422 -0.24339499
-0.28624895 0.83239973 -0.24333104
-0.28279918 0.83269775 -0.24205087
-0.27841732 0.83265179 -0.24215437
-0.27463287 0.83459711 -0.24422149
-0.54668492 0.83805633 -0.24409066
-0.541107 0.83649331 -0.24109425
-0.53753549 0.83730817 -0.24355963
-0.53320116 0.8389914 -0.24443242
-0.52727562 0.83557403 -0.24486379
-0.52055621 0.83595526 -0.24136275
-0.51756573 0.838691 -0.24239223
-0.51336175 0.83736277 -0.24230902
-0.4450646 0.83663833 -0.24387912
-0.44356677 0.83833706 -0.24422917
-0.43618107 0.8363508 -0.24428117
-0.43444222 0.83922738 -0.24423175
-0.40510485 0.8395614 -0.24423985
-0.39680302 0.83791399 -0.24347937
-0.34079817 0.83847517 -0.24415816
-0.3332594 0.83769643 -0.24372494
-0.3254908 0.83528519 -0.2442994
-0.32347682 0.8383711 -0.24436599
-0.3065514 0.83815998 -0.24430883
-0.2970024 0.83747244 -0.2440692
-0.29028758 0.83587265 -0.24338612
-0.28819793 0.83824271 -0.24387448
-0.28228939 0.83729142 -0.24359454
-0.27594292 0.83692485 -0.24199344
-0.27306819 0.8375451 -0.24399579
-0.54691184 0.84223104 -0.24180408
-0.54340285 0.84408331 -0.2436962
-0.53726208 0.84217787 -0.24132571
-0.53372037 0.84322238 -0.24416408
-0.526932 0.84232253 -0.24473198
-0.52213877 0.84309614 -0.24476537
-0.47018886 0.84398234 -0.24477349
-0.44153291 0.84216893 -0.24393578
-0.43220773 0.8434881 -0.24388383
-0.42031896 0.84468997 -0.24457592
-0.410184 0.84441018 -0.24460265
-0.40301242 0.8427676 -0.24430901
-0.39668745 0.84115446 -0.24193949
-0.34042227 0.84132642 -0.24302396
-0.33846709 0.84233141 -0.24409191
-0.33174652 0.84182745 -0.24286135
-0.32919252 0.84375799 -0.24394505
-0.32168666 0.84280688 -0.24357213
-0.31944883 0.84454316 -0.24449918
-0.30538616 0.84246385 -0.24307816
-0.3036474 0.84205008 -0.24468689
-0.29623359 0.84292775 -0.24193902
-0.29379976 0.84258842 -0.24406986
-0.2802484 0.84061617 -0.24356255
-0.27816564 0.84297842 -0.2440493
-0.2716673 0.84148067 -0.24314046
-0.26924744 0.84422529 -0.24370599
-0.23567876 0.84134972 -0.24460103
-0.23431902 0.84289187 -0.24491881
-0.20531455 0.84097934 -0.24441169
-0.2039755 0.84249806 -0.24472462
-0.195685 0.84219348 -0.24465773
-0.1943517 0.84370559 -0.24496932
-0.54610789 0.84580201 -0.24065183
-0.54202902 0.84797347 -0.24284209
-0.53751212 0.84650141 -0.24472757
-0.53301495 0.84660012 -0.24412598
-0.52934033 0.84822834 -0.24433371
-0.48817667 0.84770834 -0.24496226
-0.4802829 0.8471632 -0.24331795
-0.47875747 0.84889323 -0.24367443
-0.43763632 0.8483873 -0.24393985
-0.43072006 0.8472473 -0.24318734
-0.42882746 0.8481276 -0.24426773
-0.41863844 0.84785622 -0.24433351
-0.40851128 0.84756172 -0.24436137
-0.40231499 0.84647417 -0.24300265
-0.35211587 0.84989333 -0.24446222
-0.34239626 0.8494314 -0.24424623
-0.33598557 0.84732831 -0.243572
-0.3330918 0.84781551 -0.2433579
-0.3278158 0.84745038 -0.24319284
-0.32118946 0.846578 -0.24207203
-0.31822342 0.8473075 -0.24409287
-0.30173117 0.84660923 -0.24393232
-0.29784909 0.84776843 -0.24233639
-0.29368943 0.84568137 -0.24260005
-0.27608287 0.84534055 -0.24453601
-0.27469438 0.84691536 -0.24486051
-0.26707223 0.8473441 -0.24388582
-0.258679 0.84503591 -0.24491136
-0.23975626 0.84892768 -0.24439502
-0.23226154 0.84753311 -0.24423662
-0.20094509 0.84820765 -0.24428751
-0.55167121 0.85126704 -0.24307272
-0.54865956 0.85379171 -0.24422553
-0.5413717 0.85223371 -0.24273461
-0.53809136 0.85233492 -0.24374352
-0.53275579 0.85204685 -0.24327132
-0.50932348 0.85388756 -0.24484977
-0.48470888 0.85424197 -0.24446206
-0.47646937 0.85148829 -0.24420916
-0.47418126 0.85408342 -0.24474387
-0.43603849 0.85195935 -0.24342632
-0.43379182 0.85450745 -0.24395137
-0.42639309 0.85215473 -0.24419853
-0.42415506 0.85469306 -0.24472158
-0.41584405 0.8522858 -0.24435142
-0.41398764 0.85439128 -0.24478528
-0.40709421 0.85149866 -0.24351849
-0.35700032 0.85477942 -0.24496301
-0.35052273 0.85267872 -0.24434137
-0.34086737 0.8517741 -0.24429677
-0.33952722 0.85268539 -0.24491672
-0.33286068 0.85259682 -0.24343324
-0.32639238 0.8512274 -0.24243565
-0.32371274 0.85319304 -0.24360281
-0.31662267 0.85175741 -0.24313927
-0.3142572 0.85283661 -0.24450023
-0.30567643 0.85352993 -0.24416417
-0.30079898 0.8500523 -0.24294779
-0.29887527 0.8510412 -0.24399854
-0.26244804 0.85311025 -0.24470365
-0.24608499 0.85284746 -0.24421982
-0.23803148 0.85320139 -0.24363016
-0.23088399 0.85140336 -0.24339554
-0.22919022 0.85255498 -0.24417901
-0.2201878 0.85471898 -0.24482071
-0.54660398 0.85719234 -0.24416712
-0.53704238 0.85635787 -0.24328725
-0.5339855 0.85689139 -0.24482492
-0.52374268 0.85751092 -0.24448514
-0.51754254 0.85817987 -0.24460419
-0.51269412 0.85686421 -0.24426405
-0.50131124 0.85975021 -0.24486844
-0.49221992 0.85786885 -0.24486171
-0.48317659 0.8559798 -0.24482016
-0.47530532 0.85539746 -0.24317649
-0.47301722 0.85799259 -0.2437112
-0.46179727 0.85865414 -0.24413699
-0.44207129 0.85704017 -0.2442836
-0.42525449 0.85597837 -0.24318844
-0.42264342 0.85893977 -0.24379864
-0.41508207 0.85567069 -0.24325924
-0.41387045 0.8576749 -0.24322481
-0.35575125 0.85865223 -0.24401712
-0.34741232 0.8576743 -0.24432853
-0.33763978 0.85774767 -0.24388544
-0.33075178 0.85568917 -0.24357305
-0.32825267 0.85836184 -0.24423856
-0.32210255 0.85622692 -0.24337058
-0.31947485 0.85779822 -0.24469462
-0.31177416 0.85805821 -0.24386831
-0.30407923 0.85653925 -0.24393378
-0.29306725 0.85882127 -0.24475467
-0.25106937 0.85834062 -0.24433416
-0.24796087 0.85803843 -0.24354136
-0.24347024 0.85805076 -0.24370316
-0.23684572 0.85705686 -0.24264199
-0.23381519 0.85875589 -0.24422619
-0.22655936 0.85663784 -0.24424005
-0.2240852 0.85911417 -0.24498437
-0.54646313 0.86029214 -0.24271831
-0.54341698 0.86307877 -0.24376693
-0.53171408 0.86309385 -0.24352829
-0.5214439 0.86320674 -0.24346574
-0.51828855 0.86301881 -0.24480596
-0.51311523 0.86144871 -0.24440342
-0.50951755 0.86010432 -0.24401306
-0.50147414 0.86350155 -0.24284676
-0.49935833 0.86458915 -0.2440024
-0.49078882 0.8621043 -0.24387965
-0.48873657 0.86443186 -0.24435925
-0.48124111 0.86077565 -0.24396187
-0.47894263 0.86338234 -0.24449901
-0.47121757 0.86262244 -0.2428271
-0.46844098 0.86318266 -0.24478066
-0.46086109 0.86155677 -0.24342807
-0.45931971 0.86275268 -0.24406658
-0.42058206 0.86254376 -0.2436423
-0.4189133 0.86317027 -0.24467036
-0.3614648 0.86299914 -0.244122
-0.35308731 0.86228758 -0.24433023
-0.34559166 0.8621856 -0.24352115
-0.34415025 0.86382043 -0.24385802
-0.33484617 0.86042905 -0.2447837
-0.32609704 0.8624233 -0.24392761
-0.32395387 0.86485398 -0.24442847
-0.31714383 0.86285716 -0.24402225
-0.31400466 0.86384374 -0.2443288
-0.3093043 0.8620621 -0.24383938
-0.28161505 0.86056262 -0.24482356
-0.2481342 0.86283803 -0.2444312
-0.24167231 0.8616755 -0.24332421
-0.23937313 0.86395061 -0.24402907
-0.23221019 0.86212128 -0.24382263
-0.22508718 0.86028552 -0.2435872
-0.22253765 0.86317712 -0.244183
-0.55154437 0.86741304 -0.2433137
-0.54971278 0.86770064 -0.24464367
-0.54037082 0.86586535 -0.24481556
-0.53995645 0.86900818 -0.2435654
-0.53002739 0.86669898 -0.24306968
-0.52898288 0.86788368 -0.24331376
-0.5219366 0.86617798 -0.24157164
-0.50764424 0.86788189 -0.24394636
-0.50049764 0.86592108 -0.24241374
-0.49703914 0.86721945 -0.24454439
-0.48744044 0.86764348 -0.24378449
-0.47700715 0.86817813 -0.24364071
-0.46843308 0.86750668 -0.24260803
-0.46135795 0.86688411 -0.24034324
-0.4576472 0.86704272 -0.24325141
-0.42571169 0.86748469 -0.24391805
-0.42441091 0.86768889 -0.24486256
-0.35851794 0.8666054 -0.24467751
-0.35111019 0.86678141 -0.24365762
-0.3490029 0.86876214 -0.24435639
-0.3427088 0.86545527 -0.24419487
-0.33016515 0.86817276 -0.24465066
-0.32873064 0.86979973 -0.24498591
-0.32243109 0.86718726 -0.24447882
-0.31596297 0.86738795 -0.24268988
-0.31455058 0.86760968 -0.24371544
-0.28777719 0.86720693 -0.24478857
-0.27705038 0.86811388 -0.24469385
-0.24602523 0.86639845 -0.24433517
-0.24382202 0.86889732 -0.24485008
-0.23800187 0.86550587 -0.24434951
-0.22879642 0.86599296 -0.24462041
-0.21964817 0.86645424 -0.24485828
-0.56071424 0.87293273 -0.24280283
-0.55117011 0.8721993 -0.24302644
-0.53728497 0.87286055 -0.24377526
-0.52777618 0.87164557 -0.24238966
-0.52376008 0.87380713 -0.24453431
-0.51298749 0.87368017 -0.24499723
-0.50566888 0.87034178 -0.2442973
-0.5041976 0.8739872 -0.24364488
-0.4958593 0.87118167 -0.24349771
-0.49354014 0.87381196 -0.2440397
-0.48553666 0.87132645 -0.2434614
-0.48338985 0.8735435 -0.24407282
-0.47675961 0.87217426 -0.24182627
-0.47431707 0.87234378 -0.2437077
-0.46667492 0.87165803 -0.2419316
-0.46401739 0.8731187 -0.24333552
-0.45400062 0.87207848 -0.24365006
-0.43124813 0.87442285 -0.24423893
-0.42102122 0.87407541 -0.24437362
-0.37300679 0.87423044 -0.24433972
-0.35583007 0.87199652 -0.24412508
-0.35197088 0.87186617 -0.24385026
-0.34730184 0.87232882 -0.24392873
-0.33656383 0.87487096 -0.24439804
-0.3272773 0.87388271 -0.24409857
-0.32053244 0.87237179 -0.24339497
-0.31929165 0.87256664 -0.24429598
-0.29204428 0.87498009 -0.24433172
-0.28647014 0.87107515 -0.24389164
-0.28389287 0.87399817 -0.24449395
-0.27528346 0.8724919 -0.24391028
-0.27388459 0.87407845 -0.24423721
-0.25971323 0.87097603 -0.2447987
-0.2407057 0.87476873 -0.24440056
-0.56558007 0.87860477 -0.24430169
-0.56088173 0.87679017 -0.24072397
-0.55825633 0.87816876 -0.24364668
-0.55049288 0.87887013 -0.24486366
-0.53618515 0.87729472 -0.24242622
-0.5341875 0.87822402 -0.24356656
-0.52219331 0.87558407 -0.24490047
-0.5010916 0.87751001 -0.24437074
-0.49207544 0.87744129 -0.24339019
-0.48967487 0.87819588 -0.24494299
-0.48243803 0.87745309 -0.24286905
-0.47513232 0.87745631 -0.2404747
-0.47281674 0.87753195 -0.24230121
-0.4672848 0.8771683 -0.2414221
-0.4626607 0.87750524 -0.24221738
-0.45924851 0.87878627 -0.24431948
-0.45202309 0.87695581 -0.24278453
-0.43851352 0.87817585 -0.24477263
-0.41952342 0.87577415 -0.24472365
-0.37154117 0.87589264 -0.24468224
-0.35203722 0.87827098 -0.24401732
-0.34615624 0.87751698 -0.24223658
-0.34309995 0.87852716 -0.24418865
-0.33512241 0.87650579 -0.24473493
-0.32547343 0.87731993 -0.24381903
-0.32404959 0.87754339 -0.24485287
-0.29063275 0.87658089 -0.24466158
-0.28922123 0.87818182 -0.24499147
-0.28222823 0.87755632 -0.24404132
-0.27189675 0.87712443 -0.24430294
-0.26374534 0.87543327 -0.24482276
-0.23914751 0.87770444 -0.24417582
-0.5640955 0.88299847 -0.24328294
-0.55690712 0.88129801 -0.24165283
-0.55326551 0.88058138 -0.24457331
-0.54126292 0.88332438 -0.24357432
-0.53938973 0.88477778 -0.2443503
-0.53159928 0.88267535 -0.24442384
-0.5281471 0.88461316 -0.24486235
-0.5235647 0.88267821 -0.24487853
-0.49875048 0.88167143 -0.24415882
-0.49122113 0.88267422 -0.24144086
-0.48887286 0.88285416 -0.24324125
-0.48204973 0.88175273 -0.24101494
-0.47905594 0.88324827 -0.24267206
-0.47107977 0.88183582 -0.241531
-0.46777311 0.8838523 -0.24317746
-0.46093464 0.88075733 -0.24196839
-0.45846182 0.88278508 -0.24293768
-0.45095491 0.88211906 -0.24104266
-0.44710645 0.88281316 -0.24379185
-0.43811581 0.88119245 -0.24357268
-0.3681387 0.88279176 -0.24394529
-0.35892397 0.88211381 -0.24481079
-0.35056525 0.88240635 -0.24311858
-0.34884462 0.88374126 -0.24383137
-0.34280306 0.88217968 -0.24258703
-0.33955821 0.88438618 -0.24408798
-0.33205342 0.88287771 -0.24399509
-0.32080311 0.88366014 -0.24438459
-0.31312543 0.88247007 -0.24427055
-0.28673255 0.88339996 -0.24436575
-0.28052658 0.88139498 -0.24347708
-0.27847955 0.88331896 -0.24415585
-0.27071881 0.88004315 -0.24378055
-0.26792106 0.8832162 -0.24443439
-0.23676316 0.88157719 -0.24414413
-0.56255484 0.88610089 -0.24296013
-0.55936629 0.88897514 -0.24427523
-0.55372113 0.88553178 -0.2448341
-0.53226024 0.88744104 -0.24444409
-0.52716494 0.88942784 -0.24492161
-0.52200651 0.88740093 -0.24455018
-0.51510149 0.8889457 -0.24387754
-0.49723896 0.88715124 -0.24261448
-0.49000058 0.88569868 -0.24089962
-0.48739654 0.88799596 -0.24183878
-0.47743574 0.8872627 -0.24195357
-0.47366866 0.88935822 -0.24393104
-0.46719626 0.88670713 -0.24220328
-0.46394235 0.888197 -0.24407271
-0.45641193 0.88718104 -0.24237302
-0.45350826 0.88788551 -0.24435627
-0.44623068 0.88747692 -0.2421467
-0.4438951 0.88668966 -0.24442427
-0.37519038 0.8859846 -0.24493353
-0.37480295 0.88892311 -0.24376462
-0.36686328 0.88690454 -0.24289967
-0.36490759 0.88839096 -0.2437254
-0.35562021 0.88833845 -0.24433427
-0.35416037 0.88999414 -0.24467543
-0.34656966 0.88693798 -0.24405234
-0.34250745 0.88752121 -0.24358132
-0.33792064 0.88747144 -0.24385177
-0.33148101 0.88552845 -0.24312013
-0.3186388 0.88773793 -0.24407241
-0.31139588 0.88637149 -0.24369706
-0.30901459 0.8890723 -0.24425358
-0.30241755 0.88620073 -0.2441166
-0.28461534 0.88580126 -0.24486057
-0.27673474 0.88748497 -0.24346147
-0.27401567 0.88997233 -0.24439749
-0.26662046 0.88706541 -0.24354188
-0.26475528 0.88918084 -0.24397774
-0.23345834 0.88532537 -0.24491647
-0.55241948 0.89196581 -0.24458444
-0.54605734 0.89375991 -0.24473047
-0.53265196 0.89248395 -0.24460754
-0.52453947 0.89451206 -0.24312724
-0.51189339 0.89312327 -0.24455397
-0.50654447 0.89224946 -0.2432988
-0.50329983 0.89349246 -0.24281381
-0.49577892 0.89276063 -0.24096321
-0.49326542 0.89429343 -0.24221474
-0.48663712 0.89126271 -0.24080403
-0.48352113 0.89370334 -0.24208322
-0.47801176 0.89246303 -0.24217932
-0.47224426 0.89271533 -0.24338624
-0.4625017 0.89148593 -0.24357533
-0.45210338 0.89239138 -0.24321677
-0.37228775 0.89245737 -0.24400894
-0.3663348 0.89174712 -0.24088478
-0.36260167 0.89244622 -0.24353856
-0.34284177 0.8917824 -0.24461286
-0.33628309 0.89055675 -0.24361557
-0.31638634 0.89171267 -0.24388306
-0.31382683 0.89400703 -0.24478796
-0.30835038 0.891038 -0.24379778
-0.28071514 0.89262033 -0.24456471
-0.27505156 0.89118326 -0.24295303
-0.27283192 0.89290547 -0.24387251
-0.26178271 0.89255226 -0.24467243
-0.56523573 0.89822388 -0.24434692
-0.55293894 0.89767802 -0.24453367
-0.54770607 0.89641374 -0.2444649
-0.54108655 0.89669836 -0.24450567
-0.52549279 0.89744014 -0.24088393
-0.52265149 0.89754421 -0.24311945
-0.51774275 0.89779568 -0.24448198
-0.51213288 0.89630139 -0.2425611
-0.50843549 0.89919972 -0.2443919
-0.50108314 0.89688909 -0.24288711
-0.49771693 0.89894187 -0.24456325
-0.49186137 0.89814508 -0.24140431
-0.48163533 0.89728528 -0.24179664
-0.47917774 0.89797336 -0.24342889
-0.47151396 0.89676553 -0.24193323
-0.46851104 0.89869088 -0.24338098
-0.46226907 0.89594615 -0.24151488
-0.45906326 0.89719814 -0.24346545
-0.45306692 0.89615285 -0.2405453
-0.37680724 0.89731783 -0.2448165
-0.37145954 0.89664233 -0.24256687
-0.36937806 0.89840794 -0.24335313
-0.36076164 0.89620245 -0.24312736
-0.35792685 0.8987956 -0.24410325
-0.3128756 0.89752054 -0.24378328
-0.27928507 0.89663786 -0.24369161
-0.27083427 0.89596641 -0.2439386
-0.2687256 0.89835787 -0.24443138
-0.20755947 0.89934909 -0.24491169
-0.56760085 0.90098876 -0.24104901
-0.56363094 0.90004396 -0.24472195
-0.5523442 0.90174615 -0.24329773
-0.54823756 0.90074652 -0.24425368
-0.54136002 0.90380526 -0.24432704
-0.5393672 0.90289533 -0.24476507
-0.53054869 0.90285873 -0.24235769
-0.52811766 0.90293121 -0.24427871
-0.52097535 0.90122718 -0.24261314
-0.51803279 0.90322804 -0.24397436
-0.50636035 0.90218347 -0.24424516
-0.49711496 0.90183091 -0.24359211
-0.48711842 0.90198398 -0.24328902
-0.47711092 0.90267915 -0.24272175
-0.47212285 0.9012906 -0.24192104
-0.46724033 0.90248829 -0.24249052
-0.46402842 0.90290421 -0.24486743
-0.45833752 0.90105546 -0.24210601
-0.37641829 0.90026784 -0.24364302
-0.37385586 0.90272117 -0.24348493
-0.36652619 0.90230906 -0.24368379
-0.35572845 0.90128893 -0.244617
-0.35426286 0.90295112 -0.2449595
-0.32577205 0.90493411 -0.24483417
-0.27399188 0.90264118 -0.24492864
-0.26736921 0.90108913 -0.24414718
-0.56168842 0.90701342 -0.24277386
-0.55919677 0.90779668 -0.24438561
-0.546709 0.90843856 -0.24446292
-0.54238075 0.90891063 -0.24468122
-0.5380581 0.90762937 -0.24403454
-0.53452623 0.90514445 -0.24465129
-0.52634329 0.90647781 -0.24392033
-0.51756662 0.90676373 -0.24256788
-0.51467586 0.90837181 -0.24408531
-0.50299591 0.90799379 -0.24402633
-0.49262673 0.90736252 -0.24441859
-0.48335478 0.90685165 -0.24386667
-0.47604495 0.90677458 -0.24151617
-0.4728713 0.90840578 -0.24324965
-0.46619564 0.90632391 -0.24139878
-0.46419057 0.9066388 -0.24285476
-0.44228193 0.90579575 -0.24437043
-0.40137276 0.90716362 -0.24352077
-0.39922461 0.90896451 -0.24434304
-0.37123156 0.90782303 -0.24401225
-0.36627823 0.90608883 -0.2419785
-0.36288759 0.90806001 -0.24371547
-0.35241169 0.90753812 -0.24413858
-0.33200222 0.90839148 -0.24497126
-0.26303786 0.90749282 -0.24440789
-0.20310369 0.90672028 -0.24478506
-0.56033725 0.9146741 -0.24000131
-0.55762374 0.91196394 -0.24355221
-0.54597551 0.91084689 -0.24432845
-0.54304969 0.91182119 -0.24377608
-0.53621984 0.91148555 -0.2439419
-0.53350961 0.91390556 -0.2440612
-0.52285069 0.91158938 -0.24415669
-0.51230764 0.91182142 -0.2442539
-0.5001756 0.91119242 -0.24468544
-0.48139316 0.91171211 -0.2429968
-0.4784914 0.91368526 -0.24433906
-0.47219852 0.91254991 -0.241703
-0.46949425 0.91158003 -0.24436946
-0.43933824 0.91172326 -0.24375364
-0.39784509 0.91137642 -0.24423842
-0.377094 0.91387856 -0.24451531
-0.37120575 0.91119754 -0.24233246
-0.36789134 0.91345143 -0.24386568
-0.36124077 0.91263515 -0.24273592
-0.35910949 0.91296977 -0.24428353
-0.33089352 0.91211498 -0.24398766
-0.32871407 0.91458672 -0.24449699
-0.32249692 0.91110474 -0.24436176
-0.26130843 0.91154188 -0.24375999
-0.25884837 0.91433191 -0.24433489
-0.20103751 0.91138113 -0.24409996
-0.1986479 0.91409129 -0.24465841
-0.56258684 0.91935962 -0.24410404
-0.55706006 0.91675681 -0.24159072
-0.55371523 0.91728193 -0.24401951
-0.54289204 0.91706932 -0.24385747
-0.53994864 0.91851473 -0.24482886
-0.53259969 0.91696119 -0.24325398
-0.51111174 0.91508693 -0.24357125
-0.50874949 0.91776621 -0.24412331
-0.49662971 0.9178732 -0.24417396
-0.48675662 0.91666758 -0.2444562
-0.47830078 0.91763544 -0.24250183
-0.44511127 0.91735631 -0.24454165
-0.43649393 0.91642869 -0.24367282
-0.434762 0.91691345 -0.2448231
-0.39508602 0.91620034 -0.24402915
-0.39283931 0.91874838 -0.24455419
-0.37560886 0.91556299 -0.24486241
-0.36614859 0.91776931 -0.24309283
-0.36190766 0.91764396 -0.24312292
-0.33694986 0.91694641 -0.24495159
-0.32752883 0.91654742 -0.24446328
-0.27215728 0.91982764 -0.24464113
-0.26619151 0.91627926 -0.24433696
-0.25744259 0.91592628 -0.24466342
-0.19807296 0.9155159 -0.24440347
-0.56239313 0.92231488 -0.24277085
-0.5575636 0.92246068 -0.24486157
-0.55251735 0.92126864 -0.24413046
-0.54837525 0.92363888 -0.24429061
-0.54369533 0.92122245 -0.24478622
-0.53952855 0.92170113 -0.24356131
-0.51644599 0.92207491 -0.24402995
-0.51399839 0.9243139 -0.24487251
-0.50684303 0.92206663 -0.2434912
-0.50350589 0.92009789 -0.24495609
-0.4958052 0.9241268 -0.24168639
-0.49382591 0.92271507 -0.24399161
-0.48542941 0.92170286 -0.24298739
-0.48338237 0.92314208 -0.24391054
-0.4788186 0.92122155 -0.24027765
-0.47311312 0.92242092 -0.24426763
-0.40067929 0.92186159 -0.24494781
-0.39169636 0.92258674 -0.24354024
-0.38192278 0.92284936 -0.24438174
-0.37206215 0.92210597 -0.24442096
-0.36490378 0.92085379 -0.24254084
-0.32252005 0.92407763 -0.24470179
-0.31488022 0.92219943 -0.24490397
-0.28760326 0.92305565 -0.24436913
-0.27862585 0.92284483 -0.24480811
-0.27074 0.92143506 -0.24497233
-0.55722171 0.92886376 -0.24363473
-0.5347383 0.92713398 -0.24468076
-0.52562684 0.92711806 -0.24375038
-0.516056 0.92619896 -0.24226564
-0.51344347 0.92852277 -0.24319829
-0.50574493 0.92785597 -0.24145791
-0.50314891 0.92731971 -0.24385099
-0.49267161 0.92768079 -0.24241872
-0.48932344 0.92881882 -0.24454132
-0.48307592 0.92613709 -0.24264793
-0.47932655 0.92774194 -0.24485835
-0.42978442 0.92514771 -0.24468164
-0.39761242 0.92835808 -0.24414358
-0.39130229 0.92557585 -0.24235122
-0.38791811 0.92777985 -0.24396566
-0.38182864 0.92548847 -0.24312755
-0.37884459 0.92887294 -0.24382493
-0.32068485 0.92862493 -0.24388795
-0.3116051 0.92837006 -0.24443156
-0.2930944 0.9272595 -0.24472517
-0.28560299 0.92532432 -0.24483657
-0.27706558 0.92702961 -0.24395561
-0.27493104 0.92945045 -0.24445444
-0.56418556 0.93423688 -0.24497432
-0.55311137 0.93219811 -0.24477321
-0.54568303 0.93265605 -0.24273965
-0.54348695 0.9337849 -0.24393915
-0.53267479 0.9324854 -0.24364556
-0.52578038 0.9327901 -0.24076821
-0.52325213 0.93218839 -0.24310739
-0.51591337 0.93019581 -0.24036622
-0.51248229 0.93216968 -0.24213442
-0.50883687 0.93285245 -0.24472582
-0.50239211 0.93246049 -0.24183735
-0.49946612 0.93230426 -0.24427228
-0.49147591 0.93169606 -0.24135801
-0.48953792 0.93123484 -0.24315104
-0.40438354 0.93227756 -0.24499132
-0.39612573 0.93213356 -0.24343799
-0.39386868 0.93469352 -0.24396545
-0.38649356 0.93218517 -0.24289268
-0.38381323 0.93406951 -0.24410138
-0.37660646 0.93141115 -0.24434797
-0.3174884 0.9322502 -0.24463497
-0.2919997 0.9309358 -0.24375401
-0.28984791 0.93337625 -0.2442569
-0.28151226 0.93238878 -0.24457052
-0.27350804 0.93106443 -0.24478699
-0.55170542 0.93801051 -0.24419935
-0.5494408 0.93559659 -0.244957
-0.54193163 0.93781871 -0.24315882
-0.53930676 0.93791926 -0.24491464
-0.53196526 0.93693095 -0.24197663
-0.52905178 0.93764842 -0.24396113
-0.52184004 0.93750447 -0.24156541
-0.51983935 0.93682986 -0.24351643
-0.51095998 0.93715608 -0.24084738
-0.50958627 0.93737173 -0.24184485
-0.50066811 0.93673229 -0.24107285
-0.49747682 0.93723333 -0.24339011
-0.40134048 0.93829435 -0.24440958
-0.39161167 0.93725324 -0.24449292
-0.38267812 0.9368822 -0.24359803
-0.28697884 0.93663019 -0.24492738
-0.55890018 0.94298035 -0.24482411
-0.55250168 0.94401199 -0.2441344
-0.54826367 0.94185674 -0.2443005
-0.54113275 0.9425832 -0.24140099
-0.53864259 0.94317019 -0.24311043
-0.53028452 0.94031525 -0.24162447
-0.52844411 0.94294465 -0.24178146
-0.52059263 0.94137216 -0.24062078
-0.51818132 0.94288063 -0.24180239
-0.50747174 0.94218606 -0.2411214
-0.50405008 0.94365066 -0.24313864
-0.49843019 0.94016141 -0.24114683
-0.45862934 0.94411933 -0.2449958
-0.4186852 0.94291377 -0.24466607
-0.40847036 0.94233 -0.24491009
-0.39945099 0.94043732 -0.24485116
-0.39036441 0.94186008 -0.24317563
-0.38820636 0.9436692 -0.24400173
-0.55719531 0.94844848 -0.24344131
-0.54744971 0.94722039 -0.24225287
-0.53866684 0.94742268 -0.24094784
-0.52655333 0.94698602 -0.24126732
-0.52389759 0.94755906 -0.24311708
-0.51626551 0.94782174 -0.24085499
-0.51299208 0.94774377 -0.24353018
-0.50562716 0.94638395 -0.24193731
-0.50442475 0.94591033 -0.24169818
-0.49097013 0.94594926 -0.24423721
-0.48939526 0.94773543 -0.24460526
-0.47659108 0.94857776 -0.24483654
-0.42704633 0.94564664 -0.24483153
-0.41675845 0.94768798 -0.24381165
-0.41485173 0.9498505 -0.24425726
-0.40678009 0.94682425 -0.24400632
-0.4046542 0.94923538 -0.24450313
-0.39678586 0.94602555 -0.24418108
-0.39451846 0.94859713 -0.24471097
-0.38856277 0.94581872 -0.24263142
-0.38444456 0.9479357 -0.24488084
-0.37583163 0.94629943 -0.24436529
-0.346387 0.94687241 -0.24433942
-0.34490874 0.94854897 -0.24468489
-0.55642807 0.95128214 -0.24263105
-0.55480832 0.95311916 -0.24300957
-0.54757309 0.95006436 -0.2407202
-0.53618133 0.95296526 -0.24015608
-0.53255743 0.95247066 -0.24340899
-0.52248847 0.95270109 -0.24166051
-0.518309 0.95389736 -0.24442311
-0.51195019 0.95271593 -0.24186346
-0.50876087 0.95317221 -0.2442017
-0.49732059 0.95217776 -0.24426034
-0.48583114 0.95445061 -0.24409117
-0.47617885 0.9517045 -0.24359275
-0.46249604 0.95477283 -0.24478891
-0.42204624 0.95391816 -0.24468943
-0.41597578 0.9511646 -0.24268985
-0.4128446 0.95277411 -0.24440013
-0.40577319 0.95054352 -0.24294282
-0.40318903 0.95218575 -0.24419615
-0.38205749 0.95356154 -0.24396785
-0.37179157 0.95278811 -0.24434862
-0.34230244 0.95401382 -0.24402963
-0.33380619 0.95291364 -0.24452934
-0.54205948 0.9572295 -0.24154922
-0.53310883 0.95808357 -0.2429679
-0.52819943 0.95657063 -0.24476661
-0.52146065 0.95574284 -0.24095517
-0.51772088 0.95835841 -0.24264856
-0.50628412 0.95760018 -0.24396463
-0.50469434 0.95940328 -0.24433617
-0.49413732 0.95834494 -0.24371578
-0.48346886 0.9571299 -0.24464321
-0.44155607 0.95726132 -0.24384567
-0.42011079 0.95871395 -0.24383113
-0.41214889 0.95723075 -0.24271439
-0.40911144 0.9589498 -0.24429403
-0.40121767 0.95571017 -0.24400744
-0.39969915 0.95743239 -0.24436231
-0.37913868 0.95906091 -0.24354681
-0.36954486 0.95533621 -0.24487367
-0.34008509 0.95652866 -0.24454781
-0.33860683 0.95820522 -0.24489328
-0.55153847 0.96065867 -0.24461858
-0.54070228 0.96059227 -0.2409474
-0.53776789 0.96208048 -0.24313402
-0.53094471 0.96162808 -0.24000727
-0.52821583 0.96241844 -0.2418064
-0.51944375 0.96074027 -0.24006081
-0.51283258 0.96281838 -0.24433725
-0.50309253 0.96276176 -0.24393345
-0.49235332 0.9609434 -0.24384277
-0.45740589 0.96319342 -0.24464425
-0.44857582 0.96276999 -0.24369243
-0.44036269 0.9629882 -0.24192052
-0.43881658 0.96474177 -0.24228184
-0.41666308 0.96262413 -0.24463686
-0.40757266 0.96242088 -0.24378385
-0.37818837 0.96141565 -0.24312541
-0.33821788 0.96115518 -0.24371979
-0.56668591 0.96875346 -0.24402097
-0.56397337 0.96722174 -0.24419266
-0.55343813 0.96825802 -0.24467242
-0.54585731 0.96876907 -0.24233063
-0.53642482 0.96778834 -0.24076548
-0.53298318 0.96889108 -0.24298108
-0.52693272 0.96617818 -0.24094485
-0.52352405 0.96615344 -0.24370232
-0.5111022 0.96616721 -0.24451779
-0.50109631 0.96618217 -0.2438172
-0.48977262 0.9652127 -0.24376941
-0.4775424 0.96652424 -0.24468121
-0.45543551 0.96807557 -0.2437705
-0.4538756 0.96984476 -0.24413505
-0.44677761 0.96722549 -0.24289499
-0.44420287 0.9683885 -0.24438229
-0.43572435 0.96824878 -0.24300449
-0.41511068 0.96698546 -0.24368903
-0.41357836 0.96872342 -0.24404714
-0.56515914 0.97403276 -0.24459526
-0.54660773 0.97200865 -0.24325159
-0.54321462 0.97314084 -0.24225552
-0.53240156 0.97156972 -0.24209954
-0.52984452 0.97017133 -0.24486332
-0.51564777 0.97494423 -0.24470532
-0.51213402 0.97398019 -0.24433903
-0.508645 0.97183657 -0.24469653
-0.49632683 0.97159153 -0.2449318
-0.48502725 0.97059464 -0.24487838
-0.47513881 0.97459602 -0.2425489
-0.46125299 0.97395122 -0.24440065
-0.45244911 0.97311729 -0.24363452
-0.44649169 0.97106421 -0.24119073
-0.44309202 0.9718048 -0.24355507
-0.431086 0.97350949 -0.24408846
-0.42076901 0.97286588 -0.24444491
-0.41922981 0.97461164 -0.24480462
-0.41204605 0.97046125 -0.24440524
-0.36820984 0.97400969 -0.24481384
-0.54939204 0.97883803 -0.24406485
-0.54177761 0.97732329 -0.24130492
-0.5381605 0.97789121 -0.24393146
-0.52619714 0.97704345 -0.24433722
-0.52458543 0.97887135 -0.24471386
-0.51737499 0.97671723 -0.24418242
-0.50983322 0.9788484 -0.24494165
-0.47986573 0.97913319 -0.24473169
-0.47081205 0.97896862 -0.24382947
-0.46240753 0.97530097 -0.24279068
-0.45947999 0.97729158 -0.24414492
-0.45188886 0.9768635 -0.24219775
-0.44924521 0.97880286 -0.24334924
-0.43843222 0.97809619 -0.24413688
-0.42876685 0.97613978 -0.24463043
-0.42036402 0.97593755 -0.24322304
-0.36630926 0.97871906 -0.24397102
-0.5474788 0.98284984 -0.2435838
-0.54014575 0.98074496 -0.24089462
-0.53451914 0.98162836 -0.24498032
-0.5270229 0.98132247 -0.24390359
-0.52319437 0.98318434 -0.24366045
-0.51168728 0.98346895 -0.24450766
-0.46820936 0.98245507 -0.24416828
-0.45692366 0.98152053 -0.24407226
-0.45457345 0.98418605 -0.2446215
-0.44673291 0.98125499 -0.24413651
-0.43732888 0.98145628 -0.24333206
-0.43484402 0.98427445 -0.24391276
-0.42604086 0.98185545 -0.24394506
-0.42449474 0.98360902 -0.24430639
-0.36404654 0.98201495 -0.2441321
-0.35338461 0.9812907 -0.24480699
-0.32561406 0.98046762 -0.24413654
-0.5467149 0.98601842 -0.24260208
-0.53085345 0.98853481 -0.2444516
-0.52177572 0.98718679 -0.24278578
-0.5183593 0.98866814 -0.24479036
-0.51008248 0.98528898 -0.24488269
-0.49666941 0.98927993 -0.24401739
-0.47628602 0.98587775 -0.24421535
-0.47391331 0.98856872 -0.24476984
-0.46597967 0.98565209 -0.24435261
-0.45572799 0.9855358 -0.24301156
-0.45416117 0.98731291 -0.24337772
-0.44330522 0.98712814 -0.24393687
-0.43235922 0.98709261 -0.24449347
-0.36215159 0.98598826 -0.24365567
-0.35989457 0.98854816 -0.24418315
-0.35149273 0.98597836 -0.24396802
-0.34924603 0.98852652 -0.2444931
-0.25602365 0.9863463 -0.24479966
-0.55544728 0.99459136 -0.24462776
-0.5520407 0.99377418 -0.24374254
-0.5410701 0.99445593 -0.24456446
-0.53738743 0.99253267 -0.2446745
-0.51729059 0.99261558 -0.24366164
-0.49507266 0.99109083 -0.24439055
-0.47191536 0.99351931 -0.24388383
-0.46133801 0.99292123 -0.24442708
-0.44841617 0.99382865 -0.24472031
-0.44047275 0.99100256 -0.24426526
-0.43901548 0.99199355 -0.24493937
-0.43132937 0.99089634 -0.2434058
-0.35740787 0.99187911 -0.24450687
-0.34760377 0.99293125 -0.24359581
-0.25134265 0.99408996 -0.24466664
-0.24401863 0.99188679 -0.24477828
-0.56219512 0.99834979 -0.24424148
-0.55741274 0.99702412 -0.24346107
-0.55158013 0.99719137 -0.24268892
-0.54786295 0.99796486 -0.24381848
-0.54326558 0.9980104 -0.24419674
-0.53852546 0.99867791 -0.24425432
-0.5125137 0.99851912 -0.24451481
-0.50741804 0.99660963 -0.24464628
-0.50400722 0.99694681 -0.24407884
-0.4914591 0.99789917 -0.2438693
-0.48827979 0.99817371 -0.24353258
-0.48248267 0.99735022 -0.24309878
-0.47917363 0.99914074 -0.24486104
-0.46887669 0.99786049 -0.24414298
-0.46118614 0.99576628 -0.24311557
-0.45887211 0.99638605 -0.24466661
-0.44654155 0.99861383 -0.24381828
-0.43836558 0.99692243 -0.24297872
-0.39551345 0.99701369 -0.24433701
-0.38386217 0.99794209 -0.24497588
-0.35408172 0.99769449 -0.24425459
-0.34510744 0.99576235 -0.24417917
-0.34286079 0.99831045 -0.24470422
-0.24953066 0.99857974 -0.24386311
-0.53564036 0.60099071 -0.2359059
-0.53227556 0.60151899 -0.2383492
-0.10713084 0.60443097 -0.23741467
-0.096932851 0.60410929 -0.23776388
-0.092491686 0.60415661 -0.23762679
-0.08792302 0.60279846 -0.23803863
-0.083512023 0.60188061 -0.23776525
-0.077653497 0.60255688 -0.23737118
-0.072846912 0.60380036 -0.23751175
-0.53697079 0.60832959 -0.2394118
-0.11658651 0.60893244 -0.2374763
-0.11211657 0.60754555 -0.2368633
-0.10740122 0.60601139 -0.23660496
-0.10280439 0.60534304 -0.23743747
-0.099302515 0.60500157 -0.23796509
-0.09251225 0.60554564 -0.23627451
-0.070360444 0.60520756 -0.23880485
-0.067723364 0.60693508 -0.23640667
-0.064566195 0.60931438 -0.23726313
-0.53703755 0.61221814 -0.23739842
-0.53464025 0.61345041 -0.23870781
-0.12097445 0.61420393 -0.23798768
-0.1173236 0.61177582 -0.23694126
-0.065557048 0.61033857 -0.23760426
-0.0622238 0.61270893 -0.23743868
-0.53679174 0.6159656 -0.23570777
-0.53371829 0.61573493 -0.23829897
-0.12115823 0.61806756 -0.23850259
-0.061191909 0.61683893 -0.23618829
-0.059412934 0.6174832 -0.23729615
-0.12151291 0.621548 -0.23739104
-0.06062609 0.62030584 -0.23737948
-0.53252274 0.62864226 -0.23965339
-0.12008295 0.62522 -0.23793946
-0.53116006 0.63267517 -0.23871832
-0.53778261 0.63743591 -0.23926197
-0.53592271 0.64204448 -0.23843718
-0.54065698 0.64625603 -0.23939876
-0.54022366 0.66332883 -0.23941937
-0.5411427 0.733558 -0.23501039
-0.53692603 0.73385078 -0.23825839
-0.54419547 0.73814106 -0.23851821
-0.53718466 0.73676431 -0.23658182
-0.5328685 0.73781121 -0.23952983
-0.52366757 0.73640573 -0.23937175
-0.54123849 0.74342775 -0.23823515
-0.53509629 0.74041557 -0.23642342
-0.5324595 0.74230677 -0.23759374
-0.54796225 0.74710399 -0.23924384
-0.54169142 0.74570602 -0.23672226
-0.53799361 0.74697906 -0.23905841
-0.53676289 0.7504366 -0.23830697
-0.54671311 0.78213251 -0.23914823
-0.54196048 0.7883935 -0.23982006
-0.54001629 0.79321086 -0.2389579
-0.5396384 0.80840904 -0.23987874
-0.53191525 0.80501109 -0.23953457
-0.53738731 0.81883442 -0.23643759
-0.53532583 0.82117242 -0.23691934
-0.54036641 0.82505894 -0.2391773
-0.53803682 0.82770091 -0.23972172
-0.53068745 0.826433 -0.23800331
-0.52954811 0.82510114 -0.23959199
-0.51879156 0.82512009 -0.23996851
-0.53685176 0.83168083 -0.23867035
-0.51530814 0.83168316 -0.23946606
-0.51422262 0.83395928 -0.23919313
-0.54147655 0.83872169 -0.23967366
-0.52295685 0.83520073 -0.23980992
-0.55039608 0.84359771 -0.23830956
-0.54924148 0.84224796 -0.23991951
-0.54106611 0.84183472 -0.23843536
-0.54882926 0.84537476 -0.23867571
-0.53831577 0.84760147 -0.23774388
-0.54412878 0.8507058 -0.2397742
-0.53285605 0.85379368 -0.2390198
-0.46363568 0.86430079 -0.23981094
-0.47656384 0.8764829 -0.23981249
-0.48363319 0.88328159 -0.23896933
-0.49152642 0.88659215 -0.23922062
-0.4895938 0.88878411 -0.23967227
-0.48100036 0.88670301 -0.23936521
-0.47116056 0.88781238 -0.238454
-0.46962827 0.88955021 -0.23881209
-0.45028904 0.88716954 -0.23903362
-0.49764532 0.89196175 -0.23986286
-0.49073309 0.89011598 -0.23808362
-0.48764086 0.89362305 -0.23880625
-0.47784096 0.89246327 -0.23900644
-0.45764315 0.89096266 -0.23947585
-0.56028605 0.89815891 -0.23871034
-0.5586893 0.89996988 -0.2390835
-0.48609477 0.89537656 -0.23916757
-0.48454863 0.89713013 -0.23952889
-0.47553214 0.89508182 -0.239546
-0.47399294 0.89682758 -0.23990571
-0.5582692 0.90315634 -0.23781596
-0.49205995 0.90093219 -0.23983981
-0.55684066 0.90884149 -0.23610124
-0.55583227 0.91134018 -0.23565406
-0.55305892 0.91177559 -0.23766789
-0.47445834 0.91382223 -0.23924214
-0.47291222 0.91557574 -0.23960346
-0.56614977 0.92352486 -0.23913591
-0.51749516 0.92840183 -0.23999657
-0.50787944 0.92944443 -0.23893856
-0.51602447 0.93275446 -0.23898736
-0.50616646 0.93227828 -0.23888987
-0.50472969 0.93301678 -0.23967466
-0.53305787 0.93987983 -0.23961066
-0.5237723 0.9377659 -0.2398777
-0.51508105 0.93650901 -0.2378549
-0.51317811 0.9363662 -0.23945929
-0.50368541 0.93687403 -0.23857169
-0.54302269 0.94248247 -0.23992987
-0.53171331 0.94321144 -0.23901439
-0.52176416 0.94274169 -0.23898719
-0.51112658 0.94099396 -0.23877904
-0.5087539 0.94368494 -0.23933353
-0.5412913 0.9478507 -0.23861873
-0.53939092 0.9493252 -0.23940602
-0.53168541 0.94685638 -0.23719996
-0.52923423 0.94828141 -0.23845565
-0.51858449 0.94634795 -0.23973028
-0.50717217 0.94547892 -0.23970318
-0.54876077 0.95145279 -0.23906416
-0.5411647 0.95139879 -0.23693258
-0.5381099 0.95213979 -0.23901908
-0.53020078 0.95125014 -0.2361812
-0.52692324 0.95293486 -0.23797145
-0.51339668 0.95493001 -0.23958282
-0.53681022 0.95739663 -0.23741643
-0.5333519 0.95889795 -0.23944472
-0.52283686 0.95689207 -0.23926786
-0.54027826 0.9638086 -0.23966798
-0.53651941 0.96075279 -0.23595928
-0.53278893 0.96316791 -0.23774615
-0.54205978 0.96589118 -0.23718393
-0.53877974 0.96824354 -0.23863968
-0.54743457 0.97247827 -0.23919123
-0.53582501 0.97159469 -0.2393302
-0.44685957 0.97328275 -0.23977645
-0.54500496 0.97523385 -0.23975903
-0.54973501 0.98673719 -0.23980787
-0.55302393 0.99871969 -0.23939657
-0.53671098 0.60224235 -0.23441297
-0.10143641 0.60486525 -0.23224166
-0.098126732 0.60455525 -0.23288433
-0.092963457 0.60397285 -0.23236971
-0.087454215 0.60302496 -0.23225828
-0.082704954 0.60124177 -0.23299628
-0.077369049 0.60302186 -0.23253846
-0.072249427 0.6039238 -0.23287325
-0.068673104 0.6047461 -0.23074108
-0.5314225 0.60537827 -0.23019484
-0.12013441 0.60972404 -0.23421925
-0.11538788 0.60913217 -0.23287448
-0.11205866 0.60798305 -0.23250939
-0.10748989 0.60633516 -0.23206431
-0.10412426 0.60569024 -0.23208569
-0.092786208 0.60530353 -0.23197863
-0.089866921 0.60513771 -0.23425744
-0.06665419 0.60736972 -0.23104464
-0.064620316 0.60982484 -0.23144516
-0.12106113 0.61244881 -0.23242623
-0.11714079 0.61211729 -0.23159026
-0.11362237 0.61126173 -0.23151974
-0.065457851 0.61080396 -0.23027731
-0.062483907 0.61293679 -0.2315973
-0.12215395 0.61580294 -0.23194501
-0.11759527 0.61620581 -0.23213087
-0.061091028 0.61704266 -0.23064975
-0.05977495 0.61724925 -0.2316054
-0.061082821 0.62101233 -0.23417291
-0.54074502 0.73657459 -0.23381044
-0.53923339 0.738289 -0.2341637
-0.53772181 0.74000335 -0.23451695
-0.54110348 0.81724375 -0.2342467
-0.53955734 0.81899726 -0.23460802
-0.53858089 0.82141674 -0.23417501
-0.54133373 0.95529258 -0.23483418
-0.53930676 0.96031517 -0.2339353
-0.54545289 0.96614587 -0.2343232
-0.088373773 0.59902388 -0.22741568
-0.081323832 0.59999275 -0.22846659
-0.53359324 0.60291624 -0.22968753
-0.10725841 0.60499132 -0.22506073
-0.10251436 0.60466272 -0.22749637
-0.098297477 0.60422176 -0.22756378
-0.091537923 0.60485315 -0.22714511
-0.087428324 0.60217613 -0.22747795
-0.083141521 0.60127574 -0.22736479
-0.076785348 0.60292333 -0.22696631
-0.072245985 0.60367435 -0.22751749
-0.068767056 0.60456866 -0.22661707
-0.53248888 0.60662496 -0.22870782
-0.11536521 0.60886616 -0.22908825
-0.11231504 0.60837382 -0.22802751
-0.10771404 0.60609108 -0.22785677
-0.10103099 0.60603708 -0.22983468
-0.093911193 0.60514915 -0.22781751
-0.066584282 0.60723668 -0.22703026
-0.064234532 0.60970926 -0.2276763
-0.12214132 0.61491281 -0.22690998
-0.11715642 0.61340356 -0.22796896
-0.062244128 0.61292827 -0.22765686
-0.059702016 0.61484981 -0.22873554
-0.12561558 0.61874318 -0.22721145
-0.12303954 0.61702543 -0.2271831
-0.11894245 0.61615479 -0.22720283
-0.060994294 0.61723053 -0.22649518
-0.059254818 0.61824173 -0.22738627
-0.060313448 0.62049657 -0.22953527
-0.091084257 0.5995754 -0.22081722
-0.088459432 0.59887242 -0.22328515
-0.10688189 0.60474074 -0.2221241
-0.10253377 0.60403514 -0.22241643
-0.097039819 0.60371685 -0.22216557
-0.092267781 0.60399038 -0.22234423
-0.087391041 0.60212731 -0.2228601
-0.082204893 0.60261416 -0.22237588
-0.07744386 0.60279751 -0.22243702
-0.072448127 0.6038273 -0.22211665
-0.06836234 0.60446274 -0.22285847
-0.1157185 0.60937625 -0.22193448
-0.11224291 0.60753411 -0.22276643
-0.10895115 0.60642976 -0.22357656
-0.080697194 0.60611033 -0.22201811
-0.079115011 0.60591298 -0.22156985
-0.071156919 0.60512793 -0.22027294
-0.066838786 0.60690969 -0.22285219
-0.063689865 0.60901695 -0.22202712
-0.11760338 0.61171597 -0.22238095
-0.061777137 0.61229956 -0.22262043
-0.05932492 0.6147126 -0.22497049
-0.1255766 0.61861014 -0.22264995
-0.12222486 0.61739755 -0.22182795
-0.11885884 0.61599249 -0.22148436
-0.060712337 0.61633456 -0.22303587
-0.059101634 0.6171813 -0.22213283
-0.091240786 0.5985375 -0.21569715
-0.087959141 0.59933829 -0.21793617
-0.11043575 0.60483634 -0.21842095
-0.10731174 0.60444671 -0.21753588
-0.10229374 0.60393292 -0.21762086
-0.097912677 0.60375673 -0.21768269
-0.092627853 0.60287255 -0.21660666
-0.087618977 0.60240883 -0.21740514
-0.082442805 0.60268396 -0.21759167
-0.077020109 0.60348219 -0.21733578
-0.073056772 0.60363758 -0.21742515
-0.067952536 0.60435086 -0.21910699
-0.11595114 0.60895866 -0.21727775
-0.11253376 0.60740274 -0.21719961
-0.10744857 0.60598594 -0.21637544
-0.10352251 0.60526216 -0.2154476
-0.070738591 0.60501397 -0.21652932
-0.066767067 0.60673791 -0.2188586
-0.064653076 0.60657501 -0.21622936
-0.11803844 0.61231315 -0.21767406
-0.062207963 0.61262947 -0.21852633
-0.1255632 0.61863142 -0.21731187
-0.12193408 0.61805123 -0.21730427
-0.11904096 0.61661017 -0.217503
-0.060977962 0.61608404 -0.21881036
-0.058826733 0.61718756 -0.21777971
-0.095547974 0.59886074 -0.21206582
-0.093005568 0.59981519 -0.21363211
-0.10151014 0.60454988 -0.21244998
-0.097898185 0.60424346 -0.21220593
-0.092459559 0.60240221 -0.21254447
-0.087163463 0.6030727 -0.21285036
-0.082354292 0.60300839 -0.2125985
-0.077643715 0.60377872 -0.21271995
-0.072505154 0.60396111 -0.21195932
-0.068944424 0.60452384 -0.21270399
-0.11719133 0.60888863 -0.21293306
-0.11224638 0.60725605 -0.21321845
-0.10752026 0.60605204 -0.21236371
-0.10380191 0.60615033 -0.21246223
-0.095828265 0.60559046 -0.21225299
-0.091885053 0.60522968 -0.21284497
-0.082556091 0.60551542 -0.2112349
-0.070723921 0.605497 -0.21078059
-0.066461019 0.60678369 -0.21273732
-0.064170919 0.60828668 -0.2132723
-0.12061583 0.61480421 -0.21046519
-0.11811881 0.61290473 -0.21325162
-0.062188461 0.61247969 -0.21282829
-0.059139639 0.61422026 -0.211575
-0.12087536 0.61810493 -0.21394436
-0.11926067 0.61728656 -0.21297619
-0.05838903 0.6172691 -0.21426353
-0.096420154 0.59948891 -0.20690915
-0.094167247 0.59820354 -0.2052332
-0.10283773 0.6045512 -0.20688634
-0.097013444 0.60206008 -0.20646624
-0.092099935 0.60266316 -0.20823063
-0.087419391 0.60360289 -0.20760985
-0.082678333 0.60324967 -0.20801556
-0.076694824 0.60362017 -0.20691831
-0.072852112 0.60393745 -0.20709427
-0.11629845 0.60895431 -0.20780388
-0.11218095 0.60748416 -0.20736544
-0.10766794 0.60628855 -0.20712738
-0.10452864 0.60607445 -0.2072174
-0.095906004 0.60530376 -0.20852146
-0.093570575 0.60501254 -0.2078598
-0.071242124 0.60537422 -0.20628741
-0.067276165 0.60668153 -0.20744294
-0.064812742 0.60863626 -0.20706218
-0.12079529 0.61395276 -0.20721744
-0.11803639 0.61084497 -0.20658801
-0.062647924 0.61190587 -0.20758872
-0.058380641 0.61395806 -0.20735291
-0.12251395 0.61702901 -0.20863925
-0.056786314 0.61626977 -0.20829934
-0.10215417 0.60425436 -0.20242928
-0.098169088 0.60247183 -0.20262332
-0.09204337 0.6032185 -0.20258869
-0.087359242 0.60291511 -0.20231642
-0.082515098 0.60266912 -0.20298317
-0.077491283 0.60305631 -0.20345777
-0.073603235 0.60434806 -0.20214461
-0.11515953 0.60933441 -0.20206037
-0.11215953 0.60907418 -0.20211746
-0.10722937 0.60719317 -0.20235245
-0.10412606 0.60611415 -0.20277965
-0.07067652 0.60619187 -0.20219295
-0.06753239 0.60675901 -0.20237003
-0.064149044 0.60917401 -0.2018085
-0.12122551 0.61418355 -0.20219639
-0.11803603 0.61172932 -0.20176958
-0.11377619 0.61094368 -0.20026469
-0.062691361 0.61140758 -0.20185669
-0.057841219 0.61414623 -0.20247246
-0.12635304 0.61505747 -0.20182262
-0.12255418 0.6157757 -0.20379435
-0.11883583 0.61701441 -0.20139958
-0.056390844 0.61565834 -0.20202956
-0.10723035 0.60353726 -0.19562802
-0.10323233 0.60311782 -0.19709085
-0.097718768 0.60227478 -0.1980806
-0.093066715 0.60285938 -0.19738869
-0.086854689 0.60342002 -0.19790781
